ply
format ascii 1.0
comment Generated by CrownCAD Plugin
element vertex 484
property double x
property double y
property double z
property double nx
property double ny
property double nz
end_header
-0.2893754616638601 -0.20686634 -0.24067198813618138 0 -1 0
-0.199558147060206 0.20686634 0.3426943007605852 0 1 0
-0.421441764570556 0.15862571461379235 -0.15654673297333038 -0.6645663345407509 0.706996822097309 -0.24188236921978581
-0.33483554585380376 0.20686634 0.1534468960022465 0 1 0
-0.11236449812241946 0.07872550987507945 0.48705255327265656 -0.2225205848827459 0 0.974927991855522
0.011942227396779763 0.01519967 0.2956040029622484 0 1 0
-0.28472006779331244 0.14229126038703244 0.17595137105769448 0.8532907920859625 0 -0.5214353499153187
0.2799884947311567 -0.01519967 0.14243217242425626 0 -1 0
0.1868958580567772 0.12353294461943261 0.27772550144746516 -0.5425467344278774 0 -0.840025619229346
0.29681700627958285 -0.16183997015986099 -0.3333705415551135 0.4679552302959309 -0.706996826868097 -0.5302578516506141
0.3258608747971921 -0.017252327803464165 -0.07664162424751508 -0.9690771745067707 0 0.24675783645099034
-0.09221246114663233 0.023511660875308815 0.49129594059841847 -0.17364819903425624 0 0.9848077492445717
0.4835493268286584 -0.1229736735560544 -0.04079957975502256 0.7037024916719244 -0.7069968325225352 -0.07041506953648012
-0.32047514920143527 -0.036447080312606905 -0.38375480606850215 -0.6234900897971994 0 -0.7818312528446789
0.10330428529641708 -0.11253873095387383 -0.3183737968347853 -0.3184854594579449 0 0.9479277462517182
-0.22752779701202425 -0.14070477054138777 0.4084398889179539 -0.3536086003353384 -0.7069967586505681 0.6124675836535949
0.4190693988662103 -0.044648253491850975 -0.27265711959951505 0.8262388243941026 0 -0.5633199846125215
0.09082985174679033 0.028369433364665325 0.49153973197032286 0.17364819903425624 0 0.9848077492445717
-0.04654944729223378 -0.20686634 0.3616388589807093 0 -0.9999999999999999 0
0.08335536720308893 -0.2020691562495406 0.3975571811973097 0.15737092058328211 -0.7069967737533153 0.6894852828430597
-0.06425925694148016 0.20686634 -0.34275779037067167 0 1 0
-0.23094165597922328 -0.031719121652970486 0.44330715814088856 -0.45621043056885574 0 0.8898719250769626
-0.44215324886422847 0.10939388130476951 0.23099824981901096 -0.6210931488058299 0.7069967318673642 0.3382290963760003
-0.1327057017084095 -0.16842370146971314 0.41934426221547244 -0.22523862482740262 -0.7069968491205422 0.6703901977352339
0.06598036906163748 0.20686634 0.383701375782358 0 1 0
0.33308988531653255 0.1587183833418612 -0.03275734577935452 -0.9950308716809507 0 0.0995668840621588
0.37363787722173253 0.20686634 -0.06765113038482144 0 1 0
-0.43826856159692834 0.16265879059244776 0.08053256584703182 -0.6931942741721934 0.7069968169941568 0.14013279064878706
0.13695317879596783 0.07321582513893282 0.4807193657763766 0.27084081445238406 0 0.9626241495135935
0.30881902673388806 0.16677232510314427 0.31541471573104163 0.4938046443396625 0.7069967849056848 0.5062731667406483
-0.1723495404290429 0.08905211411880438 -0.2869679188908739 0.49999978420486285 0 0.8660255283737832
-0.2261240654255363 -0.013175988233204313 0.18640911132159987 0.7660447586674544 0 -0.6427872336303216
0.26726060954897796 -0.01519967 -0.18474012854184335 0 -1 0
0.12871848206974004 -0.12769784530859823 0.4629261247409874 0.19154314659175065 -0.7069968468739755 0.6807838728289525
0.2141222147943817 0.11904631534405766 -0.25733581316939136 -0.6234898107149465 0 0.7818314754054356
-0.26002880726114347 -0.11636750574463632 0.21080468229159358 0.7660444327208576 0 -0.6427876220785363
-0.03734113336386332 0.18376787997903013 0.42282530267673585 -0.05285085817706362 0.7069967730736213 0.705239214489264
-0.2981295072414768 0.11027777866032097 -0.398884554784191 -0.41283370614325754 0.7069968625316853 -0.5742157847380859
0.07540843944399171 -0.1230184962742969 0.3260921178223069 -0.22252101806691094 0 -0.9749278929841251
-0.20966549698724954 0.0064930881522093885 -0.20485147085945643 0.6982372048678993 0 0.7158664720031683
0.09001039503906097 -0.06662797145298967 -0.3223664938116242 -0.2708407961529997 0 0.9626241546622489
-0.038856805886440915 0.0906270360268478 0.49833426151769683 -0.0747307759876514 0 0.9972037460420431
0.46807949920578 0.07482598601781423 -0.17540998354652884 0.9396926186265688 0 -0.34202014925840546
0.31611558797401185 -0.01519967 0.022834520814429604 0 -1 0
0.4509059628240738 0.12797589718409422 -0.16518070255328635 0.6645662324183845 0.7069969308074472 -0.24188233205028345
0.40402781396425225 0.19669867392536083 0.07817342576349018 0.69319443974147 0.7069968280980578 0.1401319156038154
-0.4879915453683045 -0.10639084037114634 0.10865046785472504 -0.9801723381987201 0 0.19814688347297826
0.07202892780951184 0.07407846777903185 -0.32686346960625434 -0.22252101806691094 0 0.9749278929841251
0.37651933860861764 0.08943862776224852 -0.32890185695308527 0.7660441102611233 0 -0.6427880063708749
-0.47017634999344254 -0.06920635518645593 0.16964893346863097 -0.9396926186265688 0 0.34202014925840546
0.39501654216031723 0.17129428498066954 -0.1866988662601134 0.6371802913396327 0.7069967560764587 -0.3068499034148532
-0.4742218621326578 0.13315708435261076 0.028009796288407524 -0.7063375963598859 0.706996812014437 0.03525206050660909
-0.22332564801859783 0.007118428748158505 -0.1897441386447808 0.7660447586674544 0 0.6427872336303216
0.45824479291051445 -0.010073972730465758 -0.19973212102410104 0.9214758416190983 0 -0.3884356746134091
0.4896778953781776 -0.07404052542817016 -0.10030860749725898 0.9801723381987201 0 -0.19814688347297826
-0.43868651302659767 0.07960162905352 -0.23958110745907246 -0.8782216953192987 0 -0.4782537546852058
-0.35195400023358514 -0.20686634 0.026481403713268188 0 -1 0
0.37470351891981063 -0.1880267965975591 -0.19032679968198388 0.6371803161430336 -0.7069967285381914 -0.30684991535954287
0.2218132267323447 -0.16356075513009133 0.3853555641163639 0.35360982983076306 -0.7069967410735696 0.6124668940917628
-0.016580474588822936 0.13289758019990972 -0.47502226727201075 -0.017631137647630187 0.7069968322163694 -0.706996903968659
-0.17819396457080436 -0.1715404059422077 0.2833457870507603 0.5425467344278774 0 -0.840025619229346
0.43248795467885565 0.1423074200054462 0.17339772542395773 0.6516833271477418 0.7069968207544134 0.27470772934302584
-0.11395852143955824 0.19866723589532073 -0.3933769360770048 -0.19154315419452297 0.7069968469728021 -0.6807838705872296
-0.37165730264239594 -0.20686634 0.020306037819053956 0 -1 0
-0.23330515808780064 -0.08030221509085055 -0.4420954620706802 -0.45621043056885574 0 -0.8898719250769626
0.2211376416785187 0.1833858296558678 -0.3628606961516413 0.3536085287448847 0.7069969018759219 -0.6124674596553894
0.07470026219086351 -0.17110585186031566 -0.43066276655680424 0.12280772217196431 -0.7069967874363339 -0.6964724014127459
0.3307460776864116 0.03301178353689103 -0.05128975532377299 -0.9888305970612595 0 0.14904378657117168
-0.45961411894893506 0.14235217364117603 -0.07619117996293469 -0.6993175480253044 0.706996834287635 -0.10540608773281741
0.47924275857485665 -0.10360772238227074 -0.1421289702647269 0.9555728413831083 0 -0.2947550590083453
0.1031362830679882 -0.08219108479579346 0.4891588296628006 0.2225205848827459 0 0.974927991855522
-0.460400626774898 -0.12374808973701826 -0.1509330899452508 -0.675797007825293 -0.7069969119317733 -0.2084556805014372
-0.49724920619201335 -0.1105106416941887 -0.02080125055198173 -0.7063375963598859 -0.706996812014437 -0.03525206050660909
0.3828488344666159 -0.20686634 0.10127301332570106 0 -0.9999999999999999 0
-0.16153614060886565 -0.15844221136930067 -0.293211034595283 0.49999978420486285 0 0.8660255283737832
-0.25179485008985003 0.20238549019520302 -0.3182657077040875 -0.4409429410763105 0.7069968306759042 -0.5529238682939995
0.15998811904889082 -0.01519967 0.28353174198700354 0 -0.9999999999999999 0
-0.22797785671785467 0.20686634 0.28595292153656543 0 0.9999999999999999 0
-0.07969418888205262 -0.18698727842817284 0.32511392309118897 0.22252101806691094 0 -0.9749278929841251
-0.251251884056423 0.1263997846789798 0.4112556007951983 -0.3536085287448847 0.7069969018759219 0.6124674596553894
-0.1577199862694546 0.01684957889196176 0.47431153405280985 -0.3184860114997309 0 0.9479275607761352
-0.05356561070821678 0.09103190511941098 -0.49704147184456704 -0.12434391803999155 0 -0.9922391798585983
0.3201842706250858 0.11532096700578005 0.09749406195663776 -0.9555731095774032 0 -0.2947541895420185
-0.15773001560442831 0.15141471000345813 -0.2952539431047504 0.4562105960912547 0 0.8898718402186138
0.00021854685071525867 -0.20686634 0.3642199054420225 0 -0.9999999999999999 0
-0.2967936702183607 0.04290411884850415 -0.4022390387646964 -0.5837442981882901 0 -0.8119375556855716
-0.30442018807524207 0.08834476201197479 0.13926117937152332 0.9009688525396773 0 -0.4338837710186184
0.2639346553753122 -0.18557710140974157 0.2058702595551616 -0.7971318838186536 0 -0.6038052333325082
0.49953181594204615 -0.06512443480069854 -0.01873213298369081 0.9987569059699902 0 -0.049846191201054324
-0.3871119458891723 -0.11365219904080617 0.30796042854064054 -0.563745081073663 -0.7069969363838846 0.4270208607422485
-0.3597487555093779 -0.20686634 -0.0703044148981724 0 -1 0
-0.31854656097867057 -0.13928726284578166 0.10280340565703278 0.9555731095774032 0 -0.2947541895420185
0.38462378390522206 -0.20686634 -0.005644822488955382 0 -1 0
-0.40341002275288496 -0.12404400666089863 0.26774443739158016 -0.584329821459106 -0.7069969340759106 0.39838925055883695
0.16739479656250486 -0.12284579873771481 0.4556798906992714 0.25837493021284885 -0.7069969151789581 0.6583295203505175
0.07589368786628026 -0.11074578232014431 0.4917244746972288 0.12280691809511697 -0.7069967772332322 0.6964725535509656
0.21502730770485642 -0.12389484478693011 0.43398403934082097 0.3226396743595604 -0.7069967594477591 0.6293323626348197
0.30520578052652836 0.09750846349110423 -0.13762002788601185 -0.9214765785240934 0 0.3884339264682354
0.43669764961965263 -0.09779280142309543 -0.24323327532162373 0.8782216953192987 0 -0.4782537546852058
-0.4243049755451166 -0.06665545054190167 0.26424958161980217 -0.8532915106738648 0 0.5214341739969809
0.2542500909152872 0.20686634 0.26144615655250775 0 1 0
-0.4976420858608297 0.09386264188323046 -0.04695688214150379 -0.9950309134076083 0 -0.09956646706206296
0.09532900582951259 0.02266156213835706 0.320870066806404 -0.2708407961529997 0 -0.9626241546622489
0.26450953048293013 -0.02951073361091172 0.20511132065864568 -0.7971318838186536 0 -0.6038052333325082
0.08163496095113701 -0.20686634 -0.38442008120457777 0 -1 0
0.498550213263244 0.07507715779577862 -0.03788138850014018 0.9950309134076083 0 -0.09956646706206296
0.34148236326239234 -0.050324773362838686 0.36516430595693367 0.6982369874336137 0 0.7158666840827497
-0.4285604959759033 -0.10478089987945544 -0.2572857122798718 -0.8532915106738648 0 -0.5214341739969809
-0.0030118762277709446 -0.11337388864140911 0.4948843314926498 -0.017631137647630187 -0.7069968322163694 0.706996903968659
0.49916920205829035 0.034011561268777704 0.025997745699032505 0.9987569059699902 0 0.049846191201054324
-0.38910761836287505 -0.20686634 -0.012530946928330181 0 -1 0
-0.4263587057787517 -0.03899815158140216 -0.26088879197277526 -0.8532915106738648 0 -0.5214341739969809
0.4976435087574068 0.08516314030022704 -0.04694266223270767 0.9950309134076083 0 -0.09956646706206296
-0.14524050168876568 -0.20686634 0.3707006839668843 0 -1 0
0.2304945683150344 -0.022449798803355098 0.4435363664685521 0.45621043056885574 0 0.8898719250769626
0.2739688969718783 -0.1879975489974795 0.3186580145632872 0.4679552297910013 -0.7069968276314299 0.5302578510784591
-0.13578056272747674 -0.0938900093787678 -0.48104928923735624 -0.27084081445238406 0 -0.9626241495135935
-0.3244185856139194 -0.031884971937851336 -0.3803528190338166 -0.6616857642601027 0 -0.7497812676877996
-0.324545273922504 -0.11817919686644678 0.3671134466528691 -0.4679552343633866 -0.7069968275562174 0.5302578471435876
0.1384473704359987 -0.03879425142872101 -0.3047206476399743 -0.41128685185414837 0 0.9115059656918895
-0.14386409150363144 0.01519967 0.26933339589700045 0 1 0
-0.30962358883721985 0.11956528834997594 -0.12713972065918117 0.9214765785240934 0 0.3884339264682354
-0.06444038910700513 -0.18856104769847332 -0.4147529049371631 -0.12280774014814812 -0.7069966838840855 -0.6964725033600476
0.18029729485377843 0.0379560751182024 0.2819873106539359 -0.5425467344278774 0 -0.840025619229346
-0.2771650652832637 -0.20686634 0.26173881273081634 0 -0.9999999999999999 0
-0.40204923560899314 -0.17434031887542534 -0.163165925484768 -0.6516831323711368 -0.7069968143111842 -0.27470820798946005
0.14990389025682166 -0.20686634 0.3618455115151605 0 -1 0
0.3829284776650207 0.0070400920981707055 -0.32126375048977124 0.7660441102611233 0 -0.6427880063708749
-0.2999094050367403 0.13431267094426824 -0.3669369539428434 -0.4409426427412551 0.7069967827898601 -0.5529241674381266
-0.3141848599286333 0.01519967 -0.03164940443249298 0 1 0
0.29995558731537275 0.13208251524629525 -0.14853201753683148 -0.9009688525396773 0 0.4338837710186184
-0.2857113793009639 0.01519967 -0.17318854572086553 0 1 0
0.07784891417303295 0.18756623507576736 -0.4133984488284316 0.12280774014814812 0.7069966838840855 -0.6964725033600476
0.46330240645811505 -0.14452149995050437 -0.018881692097089058 0.7063375914714998 -0.7069968103844547 -0.0352521911439291
-0.20393948009384907 -0.1364764151699141 0.265456273307816 0.6234898107149465 0 -0.7818314754054356
-0.49974877835057313 -0.05778310621444173 0.014384906071645177 -0.9987569059699902 0 0.049846191201054324
0.2681133364564876 -0.01519967 0.12124306633984919 0 -0.9999999999999999 0
0.3344084147650761 0.028492477660412747 -0.01411431066992818 -0.9987569148035967 0 0.049846014203754965
0.30716940987332564 -0.20245314982076323 0.26517095658168405 0.5417597843962603 -0.7069968217216694 0.4545897382105934
0.32388518941115507 -0.15748074357700334 -0.08440061435357146 -0.9690771745067707 0 0.24675783645099034
-0.28546024509908485 0.10000802155791783 -0.4103872297751923 -0.5837442981882901 0 -0.8119375556855716
0.014744416987767718 0.0059099920115484456 0.4996323027102578 0.024930318135811293 0 0.9996891913178051
-0.25589309301918345 0.06133121939082042 -0.21573343443547158 0.7660444327208576 0 0.6427876220785363
-0.48102204297254325 -0.04660158189739136 -0.13636066944829256 -0.9555728413831083 0 -0.2947550590083453
0.32846800359070016 -0.11482706363447746 0.06430078642869294 -0.9801726387792018 0 -0.1981453965869923
0.3871805348568475 -0.20686634 0.06943086942941375 0 -1 0
0.33195674826228855 0.10451695975634002 0.04325756467745427 -0.9888305970612595 0 -0.14904378657117168
0.39134742604222394 -0.1867522428956793 -0.15660987634930706 0.6516833271477418 -0.7069968207544134 -0.27470772934302584
0.23675582690072527 -0.039110384647467245 0.44032640850180993 0.45621043056885574 0 0.8898719250769626
-0.4386236687750311 -0.023914859546712852 0.23969650892662217 -0.8782216953192987 0 0.4782537546852058
-0.44648947792328686 0.11838930590526942 0.20170981568452395 -0.6371802913396327 0.7069967560764587 0.3068499034148532
-0.2999182872160707 0.01519967 -0.1271796580315355 0 1 0
0.30180825243605136 -0.15836753457687563 0.144684919121513 -0.9009688525396773 0 -0.4338837710186184
-0.15557689718204787 -0.10290175817240885 0.2963577823257869 0.4562105960912547 0 -0.8898718402186138
-0.49984458 0.023288576731487515 -0.007883253461628752 -1 0 0
-0.310974542236592 0.14992112779079628 0.3367679278205191 -0.46795523476881185 0.7069968269433109 0.5302578476029907
0.41250654592718333 0.07354532854587278 -0.2822830587551139 0.8262388243941026 0 -0.5633199846125215
-0.26104588768528625 -0.20686634 -0.23532390950564588 0 -1 0
0.1397749774591032 -0.01519967 -0.26256652978298217 0 -1 0
0.31947019424448153 -0.07761147435469548 -0.3845562315091882 0.6234900897971994 0 -0.7818312528446789
-0.21718719343352233 0.08469423720921918 0.25472306769927006 0.661685549202915 0 -0.7497814574768016
0.33199667554792467 0.04527790770248181 -0.04299266720938204 -0.9888305970612595 0 0.14904378657117168
0.4959351551631211 0.016224295015185228 -0.06339568346349066 0.9888306330371366 0 -0.14904354788911786
-0.0032512802851704017 0.11896122420430917 0.3347192468092674 0.02493109811707804 0 -0.9996891718662739
0.4124896056210423 0.17397754585458575 -0.13589897143986157 0.6757969412575079 0.7069969307412926 -0.2084558325146804
-0.26291036783480687 -0.18713858048206494 -0.20722250397382724 0.7971318838186536 0 0.6038052333325082
-0.27241358340529004 -0.11118414787463529 0.19459206314976385 0.826238875462645 0 -0.5633199097087053
0.30096251820066866 0.01519967 0.04077666010302756 0 1 0
0.16962381004469065 -0.20418136340033424 -0.36671434295994415 0.2908687906431867 -0.7069967936820554 -0.6446323606157724
0.232662612298823 0.20686634 -0.27167148630627475 0 1 0
-0.04596136105273527 -0.09280723061276405 -0.33155439392719016 0.12434460302877254 0 0.9922390940179776
-0.4872819151744351 -0.03163157236590547 0.11197525267374048 -0.9690776776615154 0 0.24675586043327105
0.10842786018295719 0.17953441290777428 0.31665237438644017 -0.3184854594579449 0 -0.9479277462517182
-0.37458558780185 0.20686634 -0.04583275321245126 0 1 0
-0.08071784542109676 0.07450964597235515 -0.32488028007321995 0.22252101806691094 0 0.9749278929841251
0.057249945265543736 0.16784064828166048 -0.32976478777447166 -0.173648537892122 0 0.9848076894947196
-0.49984458 0.007555470849558724 -0.007706367841872475 -1 0 0
0.14386170537238763 0.01519967 -0.28620782167070163 0 0.9999999999999999 0
0.026463628472680058 -0.20686634 0.33787556831094734 0 -1 0
-0.021387176267618296 -0.13030538519560936 0.4774945898986177 -0.017631923784752673 -0.7069969221821244 0.7069967943977199
-0.20079388741575582 0.20686634 0.322330791147134 0 1 0
-0.49452775893656437 0.05323457089510602 0.07273306519755596 -0.9888306330371366 0 0.14904354788911786
-0.49040119009035654 0.11679728854895575 -0.03193171266074165 -0.7063375830981722 0.7069968252967869 -0.0352520598447404
-0.2676095529925278 -0.2039773051025434 0.30296423730584293 -0.4679552302959309 -0.706996826868097 0.5302578516506141
0.012487805799716326 0.031713950512861314 -0.49968857823600676 0.024930318135811293 0 -0.9996891913178051
0.46609944011175986 -0.0011998440025581536 0.18085015108966787 0.9396926186265688 0 0.34202014925840546
0.13915243808170052 0.20686634 -0.3430140710941824 0 1 0
0.3318961024458075 0.06378960189678985 -0.043659919182126083 -0.9888305970612595 0 0.14904378657117168
0.31799267459031644 0.10270513924050963 0.10459906779603254 -0.9555731095774032 0 -0.2947541895420185
-0.09262550271406171 -0.07113173956791377 0.32163071563559087 0.2708407961529997 0 -0.9626241546622489
-0.17705283630896212 0.03342569836836014 0.46747470397147767 -0.36534088299851686 0 0.9308738041269956
-0.11482915735413955 -0.05082348723909313 0.48649001181486623 -0.2225205848827459 0 0.974927991855522
0.3940574570584848 0.12565647920027873 0.2786005784513685 0.584329821459106 0.7069969340759106 0.39838925055883695
0.19086079245653492 -0.11715231690390858 0.2749994286084104 -0.58374428060433 0 -0.8119375683275982
0.3339172542201744 -0.11158093465204322 -0.023955618913633993 -0.9987569148035967 0 0.049846014203754965
0.3404252235015196 0.14433775947775837 0.3150699651992415 0.5184263680283081 0.7069967884436824 0.4810297725331522
0.1228985578981158 -0.20686634 0.3713472508005829 0 -1 0
-0.17103802380652566 0.07006054756976932 0.4698353428690042 -0.36534088299851686 0 0.9308738041269956
-0.12814371905341027 -0.1804247031411118 0.4082206871789295 -0.22523862482740262 -0.7069968491205422 0.6703901977352339
0.3238116748331155 -0.18531112052399715 -0.08468932372384426 -0.9690771745067707 0 0.24675783645099034
-0.16784492774580625 0.1762699869453454 -0.28956865673953086 0.49999978420486285 0 0.8660255283737832
0.23010059828162985 -0.20686634 0.24701699453902254 0 -1 0
-0.35908082192449836 0.03370456472959199 0.34788178429639505 -0.733051589950571 0 0.68017304156438
-0.44408952146363256 0.051607146372854684 0.22965951419835554 -0.8782216953192987 0 0.4782537546852058
0.3758339372989373 -0.19007607577166397 0.18325781847538755 0.6371804367773414 -0.7069967251587713 0.3068496726460846
0.193970735586907 0.0027554803204496436 -0.21965723316339594 -0.6616857411579058 0 0.7497812880756048
0.22021274496969168 -0.01519967 -0.2350825450288474 0 -1 0
0.19142826159249227 0.000056731084516807584 -0.22190097919457108 -0.6616857411579058 0 0.7497812880756048
0.39607966535539885 0.021164612595649612 -0.3049275939891725 0.7971321289075578 0 -0.6038049097707839
0.17876867199269295 -0.20686634 -0.3192261766101828 0 -1 0
-0.29603053605016616 -0.05215342719904625 -0.40278769575970397 -0.5837442981882901 0 -0.8119375556855716
-0.3333961049195971 0.033709389240583115 -0.029697111832765667 0.9950308716809507 0 0.0995668840621588
-0.04424010183417881 0.20686634 -0.38144790728843725 0 0.9999999999999999 0
0.19454834395310724 -0.20686634 0.3462698138973904 0 -1 0
0.1723297292803297 0.16604165325131912 0.40732290430855767 0.2908694496723017 0.7069968806374506 0.6446319678826414
0.30133627236481847 -0.20686634 -0.19620140119931836 0 -1 0
-0.26889580834232807 0.11559864301067439 -0.19932064224117574 0.7971318838186536 0 0.6038052333325082
-0.18640651317337617 0.1232588295841303 0.4477747812188445 -0.25837515787499044 0.706996888474083 0.658329459678844
0.3285543162423044 -0.17193647890849129 -0.06387382067051645 -0.9801726387792018 0 0.1981453965869923
0.2023429122701896 0.047876895109200346 -0.266729493690317 -0.6234898107149465 0 0.7818314754054356
0.33433443656736905 0.1309439787714258 0.015596600431403965 -0.9987569148035967 0 -0.049846014203754965
0.23461672292070027 0.20686634 0.2919896980727628 0 1 0
-0.3250402966317206 -0.20686634 -0.14050134531484512 0 -1 0
0.33282152312557306 0.14876466100574476 0.03543924817402938 -0.9950308716809507 0 -0.0995668840621588
-0.06223125003173662 -0.002568493965015373 0.28637480277472915 0.2225197495829389 0 -0.9749281825065609
-0.16467574537102558 0.01519967 -0.2444831066674631 0 0.9999999999999999 0
0.38760845221639995 0.07039212441266923 -0.3156863798703395 0.7660441102611233 0 -0.6427880063708749
-0.06695212991155508 0.13496372281546282 0.3280222160580719 0.22252101806691094 0 -0.9749278929841251
-0.3197006273738239 0.008746583266963079 0.3843724670817838 -0.6234900897971994 0 0.7818312528446789
0.3885545826949648 -0.13935161135258364 0.26236791371408585 0.5843298708688685 -0.7069968742565003 0.3983892842458365
0.2579638306830354 0.01519967 0.19938463797194572 0 0.9999999999999999 0
-0.43894536711455756 -0.020143253798695457 -0.23910577135613242 -0.8782216953192987 0 -0.4782537546852058
-0.2515266304954811 0.003713770959160147 0.150387219115088 0.8532904418999742 0 -0.5214359229686295
0.11548583496780405 0.1844528162110444 0.40770894931825735 0.19154315419452297 0.7069968469728021 0.6807838705872296
-0.05990961745463441 -0.13140762934938832 0.47299892231052154 -0.08793810527438915 -0.7069967656967525 0.701728197335038
-0.27465405275054033 0.04005322584537284 -0.19130589690492902 0.826238875462645 0 0.5633199097087053
0.32826949464206095 -0.20686634 0.07504020481971521 0 -1 0
0.11604176390672886 0.03295385475481906 0.4862132427390279 0.2225205848827459 0 0.974927991855522
-0.11601509614408509 0.048693611153076057 -0.3140180978473326 0.365341581069519 0 0.9308735301541364
0.4343820957510656 -0.12750298900680118 -0.20585269450731963 0.6371803161430336 -0.7069967285381914 -0.30684991535954287
-0.3430218011399272 0.1727837618024288 -0.2682662752845608 -0.563745081073663 0.7069969363838846 -0.4270208607422485
0.3339088797564517 0.0519427273653927 0.024123416754331647 -0.9987569148035967 0 -0.049846014203754965
-0.48938146111311853 0.08523860735562673 0.10177497760418397 -0.9801723381987201 0 0.19814688347297826
0.3030876160751171 0.04965049325787818 0.14202829339162246 -0.9009688525396773 0 -0.4338837710186184
-0.44475787793427196 0.1261376622797298 -0.1859050520633595 -0.651683180737204 0.7069967618072407 -0.27470822837752135
0.16426258458199938 0.00443960659031549 0.4721133428326905 0.3184860114997309 0 0.9479275607761352
-0.31668259867967746 -0.09082575019364326 -0.10850813676003083 0.9396923602875428 0 0.3420208590381975
-0.41001219677709666 0.13573896583053255 -0.23495028076567795 -0.621093040968558 0.7069968546960558 -0.3382290376509876
0.060681816772220384 0.08413279664982329 0.3291596549391728 -0.173648537892122 0 -0.9848076894947196
-0.2916817640284765 -0.008983668683223053 0.028224132466163794 0.9950309086848249 0 -0.09956651425982545
0.29975896039226974 0.018005368403473394 -0.14894031751281495 -0.9009688525396773 0 0.4338837710186184
0.369823468262809 -0.20686634 -0.14894605567024852 0 -1 0
-0.3696088973280942 -0.07135396056823476 -0.33653522696155114 -0.733051589950571 0 -0.68017304156438
0.38379731966108377 0.20686634 0.01923770139258931 0 1 0
-0.3210051960448539 0.20686634 -0.12112182281930553 0 1 0
-0.29606882561225284 0.20458147801939192 0.15615603345048354 0.8782217306181822 0 -0.47825368986554107
-0.2479345679120492 -0.19272697416712267 0.3334576689804523 -0.4128331995004879 -0.7069967849892701 0.5742162444628559
0.39245100009628114 -0.16888098251921382 0.1975866399788739 0.6371804367773414 -0.7069967251587713 0.3068496726460846
-0.16910219374386332 0.036265889984501226 -0.470487324260219 -0.3184860114997309 0 -0.9479275607761352
-0.3140311456805936 0.027613957028111903 -0.11579292674011318 0.9396923602875428 0 0.3420208590381975
-0.48334117175574687 0.11354156147127026 0.10537792393943418 -0.6931942741721934 0.7069968169941568 0.14013279064878706
0.06353486046796901 0.12292079666006415 0.32865658528243274 -0.173648537892122 0 -0.9848076894947196
-0.0658836804042287 -0.1048402152866163 -0.4954978147508106 -0.12434391803999155 0 -0.9922391798585983
0.4170336490987689 -0.1274555333119076 0.23937150681374786 0.6210924496116654 -0.7069968697687167 0.3382300920566019
0.44467889505274966 -0.14932871303965087 -0.1132031502770888 0.6853478654365488 -0.7069968987561949 -0.17450985213072903
-0.47868476586328157 0.05035415441170981 -0.143937938981548 -0.9555728413831083 0 -0.2947550590083453
0.011881311905883592 -0.06624578899260689 0.3345040237467951 -0.02493109811707804 0 -0.9996891718662739
0.4632826944817831 -0.12468868267757709 0.1383995430985639 0.675797007825293 -0.7069969119317733 0.2084556805014372
-0.2798087805842398 -0.04415580597009347 -0.41431506462646445 -0.542545445418048 0 -0.8400264517597835
-0.29102251440986426 -0.01519967 0.14320966655937797 0 -1 0
-0.1727635827178017 -0.10202948040116769 -0.46915811120396367 -0.36534088299851686 0 -0.9308738041269956
0.16253712143804758 -0.15987627385383424 0.29263311837666534 -0.49999978420486285 0 -0.8660255283737832
-0.17994096009818036 0.16801585018883788 -0.40172339051503136 -0.2908694496723017 0.7069968806374506 -0.6446319678826414
0.19138624828713524 0.1622116046883783 0.27462165099620445 -0.58374428060433 0 -0.8119375683275982
0.44821754915554585 0.05965283172878104 -0.2212908856021469 0.9009688416459627 0 -0.43388379363964746
-0.12697073664419214 -0.01519967 0.2732972384753877 0 -1 0
-0.10079383614596325 0.1298418362878822 0.3192172593816826 0.3184854594579449 0 -0.9479277462517182
0.06377719989393738 0.07282147338949799 0.3286138542117456 -0.173648537892122 0 -0.9848076894947196
-0.36935575648046737 0.1362033128506914 0.2940650795147388 -0.5637450221581506 0.7069969375808173 0.42702093653971124
-0.49632957444795944 0.098505917635049 0.06007364191557646 -0.9950309134076083 0 0.09956646706206296
-0.1485056023089604 0.11042314405267847 -0.47520346717388157 -0.22523862482740262 0.7069968491205422 -0.6703901977352339
-0.4195456537201044 0.011532500192734232 -0.271958581892098 -0.8262388243941026 0 -0.5633199846125215
0.46704381276942314 0.1048907701898764 0.17825550858815703 0.9396926186265688 0 0.34202014925840546
-0.2543175551130554 0.05188900924948249 0.43034050052284384 -0.5000002927422615 0 0.8660252347695491
-0.49682316927737286 0.0062562833914189125 0.055140835435073976 -0.9950309134076083 0 0.09956646706206296
0.4751771260838882 -0.1274824710619538 0.07267476721733493 0.6993175487699157 -0.7069968335343787 0.10540608784505098
0.18681305229419345 -0.05165092286217901 -0.27777898314499105 -0.5425467344278774 0 0.840025619229346
0.26140162010694573 -0.1758210999841173 -0.20916862770439737 -0.7660444327208576 0 0.6427876220785363
0.24856049833852487 0.1161069513661881 -0.42469092389348984 0.3536085287448847 0.7069969018759219 -0.6124674596553894
-0.3168003970595479 -0.18175298764271192 -0.1081844891382753 0.9396923602875428 0 0.3420208590381975
0.1068892151134056 0.047932225866171824 -0.3171693294854512 -0.3184854594579449 0 0.9479277462517182
-0.16435934416251494 0.030421409734260413 -0.47208083341514856 -0.3184860114997309 0 -0.9479275607761352
-0.269671411392806 -0.05456852043731206 0.4208624578327279 -0.542545445418048 0 0.8400264517597835
-0.49984458 -0.015418508832790612 0.0016313321854417792 -1 0 0
-0.11005986322979987 -0.1765679069712835 0.41742409382506074 -0.1915431468098014 -0.706996846068637 0.6807838736039499
-0.29165799968321543 0.007027327417771888 -0.02846162454103659 0.9950309086848249 0 0.09956651425982545
0.3272232037773833 -0.02975225317540296 0.07045848041899967 -0.9801726387792018 0 -0.1981453965869923
-0.31099462903101316 0.032377661718422275 0.12388722045076027 0.9214765785240934 0 -0.3884339264682354
-0.045209440831069175 -0.20041222392064065 -0.405318420827854 -0.08793741825793304 -0.7069967743167443 -0.7017282747444679
-0.30780163570302593 -0.1425559373051208 -0.13146191557040637 0.9214765785240934 0 0.3884339264682354
0.30231718467973795 -0.11362365511488458 -0.14362811052381358 -0.9009688525396773 0 0.4338837710186184
0.44245027049209124 0.16526832745853637 -0.020603794198532605 0.7063375963598859 0.706996812014437 -0.03525206050660909
0.33339275950281155 -0.1684890799060596 0.02973054456506047 -0.9950308716809507 0 -0.0995668840621588
-0.49778918660229743 -0.04754181885152653 -0.045486811047645084 -0.9950309134076083 0 -0.09956646706206296
-0.30410717960734374 0.03916718990202687 0.13991114809355107 0.9009688525396773 0 -0.4338837710186184
-0.3136454318876175 0.0714486772279799 0.1168526641652995 0.9396923602875428 0 -0.3420208590381975
-0.276671261704207 0.11698028176540459 0.4060510182248869 -0.38369718854156054 0.7069968655040039 0.5940807181459568
-0.4915862968546119 0.050861622600185494 -0.09086832610300928 -0.9801723381987201 0 -0.19814688347297826
0.12873332293410034 -0.01519967 -0.28074925164569325 0 -1 0
-0.26493092309994876 -0.04857650034023167 -0.4239241832426353 -0.542545445418048 0 -0.8400264517597835
0.4445073487931669 -0.14522499226851143 -0.12961692923880888 0.6757969611897833 -0.7069969098758282 -0.20845583866297557
-0.21336721269445466 -0.17000360248023993 0.3827946544079859 -0.3536086003353384 -0.7069967586505681 0.6124675836535949
-0.1615731519034595 0.20686634 0.32338166625710296 0 1 0
0.3038281648938222 -0.193348621189852 0.1404905280636592 -0.9009688525396773 0 -0.4338837710186184
-0.31422261169283755 0.17256801412026157 -0.11526687944151763 0.9396923602875428 0 0.3420208590381975
0.37084988315474016 0.1490393156462247 0.2708406385137931 0.5637450318386356 0.7069969254329015 0.4270209438724053
0.12070636761621195 0.1211782166708125 -0.31217690623393546 -0.365341581069519 0 0.9308735301541364
0.1636411415690486 -0.17826749373246845 0.29199571242363886 -0.49999978420486285 0 -0.8660255283737832
-0.058292667855282185 0.0494110424020309 -0.32958092725523863 0.173648537892122 0 0.9848076894947196
0.4187058965639491 -0.13443445311623117 -0.22171277140498893 0.621093040968558 -0.7069968546960558 -0.3382290376509876
0.3283055730270094 0.16210556183234834 -0.06510428727692628 -0.9801726387792018 0 0.1981453965869923
0.35482938325804053 -0.029261314345854328 -0.35214598391430546 0.6982369874336137 0 -0.7158666840827497
0.0038756754172978095 -0.20686634 0.3507867059349086 0 -0.9999999999999999 0
0.32846511971158276 -0.14164544404120621 0.06431505221257232 -0.9801726387792018 0 -0.1981453965869923
0.4140220276893504 -0.055399179712202845 0.2800602548359082 0.8262388243941026 0 0.5633199846125215
-0.005571763462576412 -0.1204829887564862 -0.48771139070103314 -0.01763113565052687 -0.7069969123486881 -0.7069968238861432
0.36924079831222734 -0.08134235452615483 0.3369319430210701 0.733051589950571 0 0.68017304156438
-0.35187911561205454 0.20686634 -0.13719461068564173 0 1 0
0.10830243434639156 0.13024025314094026 0.46551638208512347 0.15737028783974988 0.7069967818230785 0.6894854189879903
0.33311161250250726 0.032992381018120055 -0.03254021313527087 -0.9950308716809507 0 0.0995668840621588
0.14045062958750223 0.002580148740033192 0.47973533434379206 0.27084081445238406 0 0.9626241495135935
-0.3048110056982891 -0.1034933563668545 0.13844963828861456 0.9009688525396773 0 -0.4338837710186184
0.09435586071101901 0.0028965199974278193 0.2774384118349385 -0.31848609741995404 0 -0.9479275319085355
0.405309296835375 0.18673730646697187 0.11590105790217732 0.6757969611897833 0.7069969098758282 0.20845583866297557
0.16366784886431485 0.1667025470943813 -0.2919802929684007 -0.49999978420486285 0 0.8660255283737832
0.4118898350153919 -0.18593528353804128 -0.09358582649791733 0.6931943628346428 -0.7069967265100291 -0.1401328085723576
0.10182598528446779 0.05217675781339328 -0.48945789608780355 0.2225205848827459 0 -0.974927991855522
0.4479687493285863 0.15678709463418466 -0.056632233341645785 0.6993175487699157 0.7069968335343787 -0.10540608784505098
-0.23539529443377072 -0.11124719522666396 -0.4377504540191294 -0.3226396743595604 -0.7069967594477591 -0.6293323626348197
0.3234220798248075 -0.12612752151710527 -0.08621935671198834 -0.9690771745067707 0 0.24675783645099034
0.45391969890061146 0.08458262053048517 -0.20945025148302512 0.9009688416459627 0 -0.43388379363964746
0.05722912385176227 0.0992389327451302 0.49658237328516086 0.12434391803999155 0 0.9922391798585983
-0.26923779753599075 0.20686634 -0.25104782598775577 0 1 0
0.047566299481701886 0.046618912581785854 -0.49768156920941314 0.0747307759876514 0 -0.9972037460420431
-0.3229016566580148 -0.01519967 -0.04704110488544455 0 -1 0
-0.4415111355735973 -0.0874644442653434 0.23439422752857214 -0.8782216953192987 0 0.4782537546852058
-0.1774737887722997 0.047862134226861065 0.4673094923778392 -0.36534088299851686 0 0.9308738041269956
-0.49632345343173945 -0.11001227831920596 -0.04327746767776436 -0.7037024894138272 -0.706996834792615 -0.07041506931052707
-0.25304653671817545 -0.20686634 -0.26880992778393686 0 -1 0
-0.21468390640169932 0.01742931920536269 0.25688787904938803 0.6234898107149465 0 -0.7818314754054356
0.2638366348510427 -0.20022226434785423 -0.3113004810075667 0.4679552302959309 -0.706996826868097 -0.5302578516506141
0.12413217478378251 -0.14784526241798554 -0.3108323736347195 -0.365341581069519 0 0.9308735301541364
-0.2823635381255645 0.20686634 -0.2213295980275899 0 1 0
-0.02811354323982313 -0.004579112015160883 -0.4991393651461253 -0.0747307759876514 0 -0.9972037460420431
-0.1713464690452287 -0.00824543352023889 0.4697142870874741 -0.36534088299851686 0 0.9308738041269956
-0.17036314967551475 -0.20686634 -0.3489652206513331 0 -1 0
0.3525114855344931 -0.05066282487503922 0.35440679861577845 0.6982369874336137 0 0.7158666840827497
-0.3020029462311777 0.01519967 0.10491025084373204 0 1 0
0.4065798506033379 -0.18297052670794142 0.12455740585030028 0.6757969412575079 -0.7069969307412926 0.2084558325146804
0.2263637149358465 -0.1636844170966631 -0.3825856012294865 0.3536097406694233 -0.7069969194509896 -0.6124667396606236
-0.08167347345420531 0.04560240556578718 -0.32466216412397814 0.22252101806691094 0 0.9749278929841251
-0.44764471276826967 0.15618503529171315 0.06282028675615516 -0.6993175487699157 0.7069968335343787 0.10540608784505098
0.19067947928266574 0.1548439420760236 0.2751297841090955 -0.58374428060433 0 -0.8119375683275982
0.32596107261484975 0.09125196032342053 -0.07624812339897502 -0.9690771745067707 0 0.24675783645099034
0.21102761765382305 0.10872237209250683 -0.45272636085968565 0.29086948151697367 0.7069968031866001 -0.6446320384575802
0.32548223192965553 0.01519967 -0.013941604002828126 0 1 0
-0.3289804003903832 0.08224838396204888 -0.061766095580970876 0.9801726387792018 0 0.1981453965869923
0.23690662654472502 0.20686634 0.273495660814777 0 1 0
-0.3190375640282127 -0.01519967 0.04175082574184882 0 -1 0
0.49936125672898457 0.052672923215891815 -0.022149589519838433 0.9987569059699902 0 -0.049846191201054324
0.2937062232791594 -0.01519967 -0.07826232422608477 0 -1 0
0.29987987757162365 0.01519967 0.00757962360712908 0 1 0
-0.06551206813125439 0.05561009519934899 0.3283079494792185 0.173648537892122 0 -0.9848076894947196
-0.30484066300810675 0.16198648818720088 0.13838805425579145 0.9009688525396773 0 -0.4338837710186184
0.2906116476033722 0.17627399327650092 -0.16617710054689855 -0.8782217306181822 0 0.47825368986554107
0.4457179606305347 0.019349816626258814 -0.22648133385346195 0.9009688416459627 0 -0.43388379363964746
-0.2528139813829894 -0.18955810531376954 -0.3338512424047333 -0.41283374644812965 -0.7069967934647879 -0.5742158407986576
0.4566322989007298 -0.07460382283610154 0.20355739859741065 0.9214758416190983 0 0.3884356746134091
0.015455845508924268 -0.01247843567278216 0.4996145610566345 0.024930318135811293 0 0.9996891913178051
-0.27284307051867496 -0.16089965928852684 0.35452618487926174 -0.4409426427412551 -0.7069967827898601 0.5529241674381266
-0.27402074677718496 -0.04765746121207075 -0.19223478652205528 0.826238875462645 0 0.5633199097087053
-0.1891677645527491 -0.19594559879449272 -0.3662990761927315 -0.3226392619092557 -0.7069968094020531 -0.6293325179664304
-0.10098462037256546 0.163658408750453 -0.3191531595572952 0.3184854594579449 0 0.9479277462517182
0.3329789203334408 -0.20686634 0.08706559327301235 0 -1 0
0.08506866491808794 0.20686634 -0.39151548745586123 0 1 0
-0.29651811116169047 -0.0940340026218843 0.1553310061874847 0.8782217306181822 0 -0.47825368986554107
0.232703604918059 0.008579183996830251 -0.17811553321261384 -0.797132143367537 0 0.6038048906809852
-0.15112386273894332 0.12266040916749797 -0.4614182995387645 -0.22523862482740262 0.7069968491205422 -0.6703901977352339
-0.25471685327884297 0.004776287270334982 -0.14499562846842493 0.878222258200369 0 0.47825272106015687
0.17423594996938135 -0.047991758193757214 0.2858788004616951 -0.49999978420486285 0 -0.8660255283737832
0.48579180079082296 0.10909502391696317 -0.11474146740037888 0.6853480231575739 0.7069967359518214 -0.17450989229117042
0.1904714401272662 -0.01519967 -0.2696518972964109 0 -1 0
-0.131854662710501 0.01519967 0.30251932143231336 0 1 0
0.3213365383395611 0.09525546615568242 -0.38306787063438347 0.6234900897971994 0 -0.7818312528446789
-0.3090976502721655 0.13456716981093936 -0.1283873976421023 0.9214765785240934 0 0.3884339264682354
0.3062146037679103 0.07225792891843599 -0.13522681008123236 -0.9214765785240934 0 0.3884339264682354
0.36185787162180055 -0.20686634 -0.11228174662855518 0 -1 0
0.39300705666008157 -0.20686634 -0.045055850322718013 0 -1 0
-0.17070774635517735 0.11772411975641191 0.2879158085959073 0.49999978420486285 0 -0.8660255283737832
-0.25494137717536675 -0.11396373774721408 -0.42348092036229956 -0.3536085287448847 -0.7069969018759219 -0.6124674596553894
-0.27803015819953136 -0.1754241141157668 -0.18635405777845457 0.826238875462645 0 0.5633199097087053
0.4620987267915388 -0.02834694903091753 0.1905895339790371 0.9214758416190983 0 0.3884356746134091
-0.4818288009479887 -0.12531692878779738 0.03282930635610913 -0.7063375830981722 -0.7069968252967869 0.0352520598447404
0.35585168144462 -0.20686634 0.006205044592048077 0 -1 0
0.013430429451984608 0.10360136827944183 -0.33446539053696983 -0.02493109811707804 0 0.9996891718662739
-0.20520722628848528 -0.06167246078418842 -0.2644452794302436 0.6234898107149465 0 0.7818314754054356
-0.3749500146953134 0.12512089696250178 -0.3046634205213711 -0.5417591971612238 0.7069968329464851 -0.45459042059294014
0.13464523877556892 0.1922493365542014 -0.30643623351632804 -0.41128685185414837 0 0.9115059656918895
0.3248156062447613 0.07790817026515755 0.08074664441611108 -0.9690771745067707 0 -0.24675783645099034
0.25612783364089 -0.19293601296612833 0.3268928456084095 0.44094297418600653 -0.7069967775556191 0.5529239098121632
-0.20809685029365182 -0.11776275833038234 0.26214088112869866 0.6234898107149465 0 -0.7818314754054356
0.3513918154131683 0.06379332916896047 -0.3554988945462309 0.6982369874336137 0 -0.7158666840827497
0.3253913493808153 -0.11340356288725204 0.07848556310840678 -0.9690771745067707 0 -0.24675783645099034
0.24469517458461318 -0.1680060538496657 -0.36597914402548354 0.3836968528344167 -0.7069968604801745 -0.5940809409467203
-0.1818948829592342 0.01519967 -0.2363385050573899 0 1 0
0.11266110212597838 0.0725099269715535 0.315230086653487 -0.3184854594579449 0 -0.9479277462517182
-0.32821408806539304 0.0884063105133362 -0.06555683907868741 0.9801726387792018 0 0.1981453965869923
-0.2094052743076593 0.14757401423709174 -0.2610974477719061 0.6234898107149465 0 0.7818314754054356
0.42492336197211766 0.09443752239865338 -0.26323763435054054 0.8532915106738648 0 -0.5214341739969809
0.3152900762073838 -0.20686634 0.16673227070906135 0 -1 0
-0.1762263949577571 0.06730010331187516 0.28461657980265 0.5425467344278774 0 -0.840025619229346
0.48934466616122974 0.07817527484277716 0.10195699103479992 0.9801723381987201 0 0.19814688347297826
-0.07264659765692129 -0.1921559757381807 -0.4096566691016476 -0.12280774014814812 -0.7069966838840855 -0.6964725033600476
0.09727500545947343 0.044282558605297034 0.49040327733177547 0.17364819903425624 0 0.9848077492445717
-0.36936667664640244 0.19594936915791528 0.18315487809298836 -0.6371804367773414 0.7069967251587713 0.3068496726460846
-0.22083422080375087 0.04993733608785515 0.2515045494438991 0.661685549202915 0 -0.7497814574768016
-0.44131907760874545 0.028139618072681977 -0.23474690530650774 -0.8782216953192987 0 -0.4782537546852058
0.17487016710362505 -0.038331079254186495 -0.46833133812665123 0.36534088299851686 0 -0.9308738041269956
-0.4890662795976495 -0.0016879110018876292 0.10333408465426525 -0.9801723381987201 0 0.19814688347297826
-0.3324446382221354 -0.08817893909414017 0.03920568234060333 0.9950308716809507 0 -0.0995668840621588
-0.12727562714170704 0.06546582537647036 -0.483442210381168 -0.27084081445238406 0 -0.9626241495135935
0.43532456362936367 -0.04619243566253792 -0.24575468554453866 0.8782216953192987 0 -0.4782537546852058
-0.2922553856751618 -0.18724860168257018 -0.16315868892837887 0.8782217306181822 0 0.47825368986554107
-0.4562715634428181 -0.11240904497967232 0.1939237881384473 -0.651683180737204 -0.7069967618072407 0.27470822837752135
-0.41884452379825093 -0.17570721993874117 0.10779377945446028 -0.685347647147289 -0.7069967159735522 0.17451144991744114
-0.1494296505126855 -0.11761747497373252 -0.4673058253923325 -0.2252386077408176 -0.7069969027866247 -0.6703901468794856
0.33082897446637316 -0.027122269025274908 0.050739776862344835 -0.9888305970612595 0 -0.14904378657117168
-0.22762822781538944 0.05928335045203854 0.44500585257846265 -0.45621043056885574 0 0.8898719250769626
-0.13841312415842177 -0.08635387219154061 -0.30473610013751407 0.41128685185414837 0 0.9115059656918895
-0.12659654119480607 0.022985908910180958 0.48363327580481724 -0.27084081445238406 0 0.9626241495135935
-0.007388880868033422 0.082337780967013 -0.3346160598097443 0.02493109811707804 0 0.9996891718662739
0.2823306983356125 0.0867043874878099 -0.41263722432994365 0.5837442981882901 0 -0.8119375556855716
0.4648911694800361 -0.029055794243175448 0.18396509486407392 0.9214758416190983 0 0.3884356746134091
0.2569477906533055 -0.033833555684165684 -0.21447649478219938 -0.7660444327208576 0 0.6427876220785363
0.33853907091827407 -0.20686634 0.022611724875263212 0 -1 0
-0.4570205632526872 0.05497901535905105 0.20263632918006966 -0.9214758416190983 0 0.3884356746134091
0.36159229057683256 -0.016198368496717477 0.345175067069746 0.733051589950571 0 0.68017304156438
-0.33454337223991126 -0.17726178572729126 0.011410188517951999 0.9987569148035967 0 -0.049846014203754965
0.377972404243025 0.11779116752854363 0.3124609631019272 0.5417591971612238 0.7069968329464851 0.45459042059294014
-0.4323943119877265 -0.07570586295421824 0.25101193349913314 -0.8532915106738648 0 0.5214341739969809
0.25197583469908336 -0.0340045977072953 0.4316924944896457 0.5000002927422615 0 0.8660252347695491
-0.4514347358048677 0.11450971096211303 0.19999173351464153 -0.6516831323711368 0.7069968143111842 0.27470820798946005
0.08359495721878689 -0.1730258842249525 -0.32417152049675113 -0.2708407961529997 0 0.9626241546622489
0.3309291430865783 -0.17596272686936285 -0.050075208423747644 -0.9888305970612595 0 0.14904378657117168
-0.25342509863647333 0.11642681330325791 0.2186746755109421 0.7660444327208576 0 -0.6427876220785363
-0.012769960163200011 -0.030548762792035125 0.3344818618813691 0.02493109811707804 0 -0.9996891718662739
-0.1565790554183067 -0.20686634 0.3643244670417485 0 -1 0
-0.17419046941527686 -0.06488116463824939 0.4685980996925394 -0.36534088299851686 0 0.9308738041269956
-0.034007153705000216 0.03549246793590942 -0.3330524614556107 0.12434460302877254 0 0.9922390940179776
-0.42277294743972904 -0.07474409846801733 -0.26675664126727455 -0.8532915106738648 0 -0.5214341739969809
-0.11972060041034911 0.07738795424474865 0.3125637920330158 0.365341581069519 0 -0.9308735301541364
-0.31823089117719877 -0.05068076913195446 -0.10382678576321802 0.9555731095774032 0 0.2947541895420185
0.1880081311097069 -0.08946515906144156 0.46317506952235193 0.36534088299851686 0 0.9308738041269956
-0.31750313921057327 -0.19535602613511122 -0.10618610832562149 0.9555731095774032 0 0.2947541895420185
0.03805848255623523 0.040382790651201386 -0.3325447603573745 -0.12434460302877254 0 0.9922390940179776
0.46714994557809425 0.1279913036755471 -0.11139810683062704 0.6853480231575739 0.7069967359518214 -0.17450989229117042
-0.10747529525169505 -0.0664190206693573 -0.3169724178507191 0.3184854594579449 0 0.9479277462517182
-0.28697251498515386 -0.20686634 -0.2735463551591422 0 -1 0
-0.24991354618292327 0.205667829906121 -0.3155690324825194 -0.4409429410763105 0.7069968306759042 -0.5529238682939995
0.06493494943349225 -0.09660958260727844 0.4956167063733769 0.12434391803999155 0 0.9922391798585983
0.12209850202876674 0.11498763866408604 0.31163053277839226 -0.365341581069519 0 -0.9308735301541364
0.360082601794046 0.20686634 0.14991752471919031 0 1 0
-0.2588696100402821 0.07586692231154603 0.21218615969869561 0.7660444327208576 0 -0.6427876220785363
-0.2900504823541063 -0.00016438952588703794 -0.04181165879570906 0.9888309179254262 0 0.14904165778318204
-0.3343986870001442 -0.04404070078578416 -0.014309224398668578 0.9987569148035967 0 0.049846014203754965
-0.3043499122868118 -0.11726260576763543 0.1394071085366421 0.9009688525396773 0 -0.4338837710186184
-0.23453455438643972 -0.019890920622232855 -0.44146518775935906 -0.45621043056885574 0 -0.8898719250769626
-0.27316586959076794 0.011326822638386351 0.10628201347719535 0.9396920037671135 0 -0.3420218385661173
0.45569563281406544 -0.03495842696050641 0.20576248728371677 0.9009688416459627 0 0.43388379363964746
0.09489778231905244 -0.19667411546848662 0.32099139444848246 -0.2708407961529997 0 -0.9626241546622489
0.2558121930063691 -0.1192861392922964 -0.2158298473132166 -0.7660444327208576 0 0.6427876220785363
-0.3932311083454946 0.010420939970091497 -0.3086882065262278 -0.7971321289075578 0 -0.6038049097707839
-0.15995486235505238 0.00027403687194908245 0.2455396132291089 0.5425475798186845 0 -0.8400250732167988
0.3111673446242266 0.08645374369183602 -0.3911775381357396 0.6234900897971994 0 -0.7818312528446789
