ply
format ascii 1.0
comment Generated by CrownCAD Plugin
element vertex 565
property double x
property double y
property double z
property double nx
property double ny
property double nz
end_header
0.2999498432270134 0.06279621 -0.36055356487678863 0 -1 0
-0.3157873268282825 -0.14573459 0.28770477097691216 0 -0.9999999999999999 0
-0.49322745221776243 0.09903283130838575 0.08135991660354479 -0.9888308103826617 0 0.14904237128403505
0.4164914859768847 0.035303018971642675 -0.1509158239682717 0.9396924513138931 0 -0.34202060894584535
0.3419101490552621 0.14573459 -0.20900189765003613 0 1 0
-0.48678407175490607 0.10590724052847443 0.11393062938676833 -0.9690771021619217 0 0.2467581205663811
0.45949828373297497 0.14573459 0.1108037265147745 0 1 0
0.3564589820192461 0.12203791 -0.002504505458253939 0 1 0
-0.32186021008445165 0.134170928670408 0.10181978737733793 -0.9555731027951682 0 0.29475421152956416
0.001239650096109473 0.14573459 -0.49131813584017014 0 1 0
-0.05034148249466819 -0.14573459 0.30222504485423085 0 -0.9999999999999999 0
-0.2433166808201281 -0.02056300819678522 0.3702024837091644 -0.5425457850560903 0 0.84002623239865
0.4287626227875122 -0.11648835955628252 -0.1113892682256423 0.9690773553968351 0 -0.24675712605125788
-0.31117299127060355 -0.05601636900766939 0.3153069452803629 -0.6982364666623224 0 0.7158671920286022
-0.2660412331116883 -0.013339408989467977 0.13003851127155605 0.9009688214000017 0 -0.4338838356808099
-0.1518482286314092 -0.14573459 -0.3808644587498281 0 -1 0
0.3017595064720456 0.13726407741128177 0.3986688098269498 0.5837442981882887 0 0.8119375556855727
-0.029076432795598458 0.14573459 -0.41884537656908805 0 1 0
0.1353168574966265 -0.1443099911011442 -0.3092889452186363 0.4112876092164974 0 -0.9115056239568563
-0.16392312899256567 -0.14573459 -0.4075908381486487 0 -0.9999999999999999 0
-0.4982419862778636 0.1173589674102467 -0.040961909305123126 -0.9950306749716004 0 -0.09956884987565848
0.29611647 -0.011333107580704382 0.001283711426694565 -1 0 0
0.16007155479948246 0.14573459 -0.2630364889957642 0 0.9999999999999999 0
-0.2544530086557155 0.06035932318567197 -0.1514934864657078 0.8532904027454864 0 0.5214359870419815
0.20412563627337063 0.14374061317377923 0.34443174665194193 -0.49999943243126327 0 -0.8660257314701536
0.06970947396758186 -0.14573459 0.4325146828473842 0 -1 0
-0.11959623427675374 0.14573459 0.4344552297620913 0 1 0
0.3121783315279093 0.12370447120076335 0.2507935750461583 -0.76604479550938 0 -0.6427871897237781
0.01496267036142572 -0.12400622446769416 0.2958254899729213 -0.07473106888431227 0 -0.9972037240922279
-0.18831245478523084 0.09679667714901936 0.4630556148199303 -0.3653416528950508 0 0.9308735019646397
-0.1334309558040994 0.14573459 -0.2914164639210165 0 1 0
-0.28697844723126265 0.1078087984362795 -0.4092956850005028 -0.5837442981882887 0 -0.8119375556855727
0.2790780296910487 0.09348953796883645 0.09902603562951522 -0.9396931163054816 0 -0.34201878189376184
-0.06397276464895804 0.015648362429076523 0.4384382575439603 -0.12434327089262648 0 0.9922392609566117
-0.3125447762077448 0.14573459 0.38473285028699694 0 1 0
0.0933469005791978 0.028079967235243725 0.4330767435060393 0.22252029022124076 0 0.97492805910993
0.02174151611991152 0.08421956979977555 -0.49945778239808414 0.0249315207240534 0 -0.9996891613268527
-0.4489687849614769 0.14573459 0.15150822718625043 0 1 0
-0.24454865144007146 -0.12203792 -0.24984933688787922 0 -1 0
0.06991924382984743 -0.04679554599126677 -0.43749542955188503 0.17364810430485705 0 -0.9848077659479182
0.1096990279004289 -0.11253505140388328 0.42932568947900407 0.2708421065794762 0 0.9626237859639619
0.0563504807855546 0.12203791 0.3776434013476996 0 1 0
-0.33241875132138327 0.08035952492999639 0.37329263374460164 -0.6616858437432154 0 0.749781197543543
-0.33439223351885144 0.12203791 0.07298014792455065 0 1 0
0.23794250856989213 0.136943862861275 -0.17629013731934862 -0.7971324095610868 0 0.603804539256982
-0.39988592349673735 0.13827079411058252 0.019271725501007246 0.9987569753648121 0 -0.04984480073319532
-0.21289515462961384 0.12203791 -0.2883611354086889 0 1 0
-0.3339666236490652 -0.12521793073025694 0.049222764805371876 -0.9888307036555768 0 0.14904307936974734
0.3317258621113593 0.14573459 -0.2650421130243808 0 1 0
-0.236017403139021 -0.12203792 -0.30522159405225824 0 -0.9999999999999999 0
0.4144731702907811 0.06279621 0.20203997306324414 0 -1 0
-0.3980578734210682 -0.1239751502595156 -0.042881514036079205 0.9950307223791732 0 0.09956837611199922
0.28155084619699233 -0.06166904495923145 0.09185292116421136 -0.9555729137377043 0 -0.29475482444030293
-0.36767111331339786 0.04197245098037633 0.2471172272099727 -0.8262390340605357 0 0.5633196770881638
0.02454142213431935 -0.0051438464750685475 0.4423932422713161 0.07472873995289836 0 0.9972038986210654
0.11732985549978871 -0.12203792 0.341306181752446 0 -1 0
0.037623118691570714 -0.1074712983753065 -0.44141292249767566 0.07472873995289836 0 -0.9972038986210654
0.2625959361682344 -0.12203792 -0.2593529195817186 0 -1 0
-0.47873945543492796 0.06279621 -0.1261628721975778 0 -1 0
0.1349730452596186 0.058203529351732064 -0.4219765373157717 0.3184876981121325 0 -0.9479269941041003
-0.2241994027063302 0.06279621 -0.4177861486300135 0 -1 0
0.3318606873217598 0.09650271062785278 0.373785128154522 0.6616858437432154 0 0.749781197543543
-0.44601415174834963 0.06279621 0.21121996753068192 0 -1 0
0.4407056658616597 -0.0470875847656146 -0.044939490871920985 0.9950309057167106 0 -0.09956654392205443
-0.3606387888335567 0.10148697408878637 0.3462027238706125 -0.7330521899358996 0 0.6801723949339473
0.49300523014205094 0.14573459 0.02151642617221495 0 1 0
0.23338976706991715 0.06602386605704258 -0.18230058865919724 -0.7971324095610868 0 0.603804539256982
-0.04320068501615306 -0.0982794162795686 0.2930187820444351 0.12434314233642799 0 -0.9922392770667279
-0.19933220760461487 0.03169283071744007 -0.21902543470297064 0.6616859714184135 0 0.7497810848694907
-0.43732604197558783 -0.11995242965928407 -0.07077696799273672 -0.9888307247425194 0 -0.14904293946773803
-0.09269590676302403 0.09351739496666708 -0.28123890324261724 0.31848702042029736 0 0.9479272217970116
0.202602306636058 0.14451828674873637 -0.21603467464903467 -0.6982373004789945 0 0.715866378746625
0.26406635518262783 0.12203791 0.24410203325533722 0 1 0
0.21274123874202952 -0.035560343609259526 -0.2060742407561197 -0.7330511566663588 0 0.6801735085330164
-0.2848264299320317 0.06279621 0.3604629241282795 0 -1 0
0.14015309565094386 0.06338739461501296 0.47981903934494374 0.27083980396313645 0 0.9626244338210046
0.07294952782046918 0.10698456444073626 -0.4946123476478755 0.12434391803999156 0 -0.9922391798585984
-0.3592196006143207 -0.007753265802005388 0.2594293822254804 -0.7971322102079184 0 0.6038048024395295
-0.3202740952525047 -0.12203792 0.12695440040434494 0 -1 0
0.39747869071341757 0.14421453263742307 -0.04866954242909891 -0.9950307223791732 0 0.09956837611199922
0.29782953187225586 0.14349049433964936 -0.15893742704866637 0.8782212427658401 0 -0.47825458571227886
-0.40656641945679517 0.14573459 0.10636462531794114 0 1 0
-0.21679260769381214 0.08594763495279577 -0.20170791266640656 0.7330511566663588 0 0.6801735085330164
-0.21343384716202574 -0.12203792 0.33530610952160744 0 -1 0
-0.4905286730635359 0.14515752036434726 0.09610018183835892 -0.9801728056153757 0 0.19814457129097235
0.34011120007643786 0.12203791 -0.14829405308126933 0 1 0
-0.19761415016212988 -0.12205916702328656 0.2736868517086313 -0.5837441416330659 0 0.8119376682412728
0.1814867178280883 0.06906941871049671 -0.46573452448583674 0.3653416528950508 0 -0.9308735019646397
-0.401821355574869 -0.07501386980493442 0.1865976911246921 -0.900968481278994 0 0.4338845419484578
-0.12578255076956243 0.04322196714298508 -0.42480045825304474 -0.2708421065794762 0 -0.9626237859639619
-0.3300658048741109 0.14573459 -0.044544875597382454 0 1 0
-0.24745161930802134 -0.12203792 -0.297413097973365 0 -1 0
-0.3708839899957708 -0.12203792 0.09749961579969355 0 -1 0
-0.3815638139282051 0.13708775887916658 -0.12124452122709238 0.9555728684656349 0 0.2947549712088979
-0.014463733058213673 0.002378645861925266 0.2958478276292661 0.024930649430133865 0 -0.9996891830559096
0.09805587598030156 0.12203791 -0.3867371160680957 0 1 0
-0.4443970789960041 0.10921836007079111 0.22909479611958913 -0.8782211899026597 0 0.4782546827851833
0.05176045770047382 -0.12649964234490813 -0.29155776728412314 -0.1736480195518096 0 0.984807780892157
0.25983134181941125 0.14573459 -0.39553108971995615 0 1 0
-0.10245022996110727 -0.12203792 -0.3227902439812545 0 -1 0
0.06426419441144378 -0.043299641725008164 -0.28906376929569655 -0.2225199012358578 0 0.9749281478929531
0.30091839719870905 0.1443268033452213 0.3992735271959461 0.5837442981882887 0 0.8119375556855727
0.0720549867434741 0.06279621 -0.48343871694358936 0 -1 0
-0.24404199176405675 0.14573459 0.18724082524568458 0 1 0
-0.26777824556042906 0.14573459 -0.14761832209480355 0 1 0
-0.47416867945893887 0.12120603650685399 -0.15857873779208587 -0.9555728413831083 0 -0.29475505900834537
-0.29121541774225057 0.14364934303130472 -0.1708386981219226 -0.8532915231919613 0 -0.5214341535119679
-0.27632689274858524 -0.030189185326150586 0.10658475633056033 0.9396931163054816 0 -0.34201878189376184
-0.38847533485765107 -0.12203792 -0.03232749039229975 0 -1 0
-0.043440168288545376 0.006913296467420393 0.29298877103467713 0.12434314233642799 0 -0.9922392770667279
-0.23754042525064942 0.13712058177427 -0.17682096082972942 0.7971324095610868 0 0.603804539256982
-0.2735159276254642 -0.12203792 0.272999144040954 0 -1 0
-0.42835876980988763 -0.13716893346690506 -0.11297530053923079 -0.9690773553968351 0 -0.24675712605125788
-0.42776967767897717 0.14573459 0.19726892328401976 0 1 0
-0.11376275998632204 -0.12203792 0.3389322824634866 0 -1 0
-0.23133574704058055 -0.08000068017903235 0.18498023836603225 0.7660439912060578 0 -0.642788148255001
0.04293067086801137 -0.12725092644224378 0.4410151836932765 0.07472873995289836 0 0.9972038986210654
-0.0167388774491633 0.020523860528170013 0.2956923799062222 0.07473106888431227 0 -0.9972037240922279
-0.4031461843013546 0.03336841353182719 -0.1838466621982034 -0.900968481278994 0 -0.4338845419484578
-0.4716414761012876 0.11076949321091262 -0.16562350475542476 -0.9396921380383945 0 -0.3420214696606504
0.12314369749040915 -0.04106942803739376 -0.2693005845867042 -0.41128751545847747 0 0.9115056662621427
0.05247785903941252 -0.12203792 0.39417662743019505 0 -1 0
0.31402537430987837 0.08912427236878617 0.38889832623285486 0.623489205276228 0 0.78183195822633
-0.017483538809402854 -0.07554103711488445 -0.4426919262522383 -0.024931920934885523 0 -0.9996891513458054
0.4418151694320597 -0.11021583025772859 0.03385152598870413 0.9950309057167106 0 0.09956654392205443
0.3595893562960532 -0.14573459 -0.23006982315363533 0 -1 0
-0.3472818039787039 -0.12203792 0.1294414874913484 0 -1 0
-0.20755370550558705 -0.13955311093643083 -0.34245255295346655 0.4999994324312633 0 0.8660257314701537
-0.24975143819393109 -0.05455412541820863 -0.36603708553063796 -0.5837446416291153 0 -0.8119373087679219
-0.2340028109413558 0.12482400437701281 -0.24331814902013982 -0.6982376572335066 0 -0.7158660307774525
0.11948594516473017 -0.14573459 0.3057011266375359 0 -1 0
-0.44188543383952655 0.02380527145034786 0.033149329706224376 -0.9950309057167106 0 0.09956654392205443
-0.386887198632122 0.13368327416076184 -0.10303990053419095 0.969077151623683 0 0.24675792631834406
0.4354689202401029 0.14573459 -0.024603520549580926 0 0.9999999999999999 0
0.19938735112182046 0.11010215891716815 -0.21897677024278897 -0.6616859714184135 0 0.7497810848694907
-0.09607698149956387 0.12203791 0.35505019309669644 0 1 0
0.22370920608484093 0.04974065323856983 0.3823624886505317 0.5000000779229473 0 0.8660253587955995
0.3300751301233712 0.14573459 0.3156121546648657 0 1 0
-0.4980499918199502 0.09095783162083608 0.04288058543010516 -0.9950306749716004 0 0.09956884987565848
-0.2217828237610333 -0.14357643751592924 0.1963297501619874 0.7330511566663588 0 -0.6801735085330164
-0.3427080321984347 -0.14573459 0.2773082727456499 0 -1 0
-0.4352416712293194 -0.03960202570571571 -0.08265777262876021 -0.9801726176316715 0 -0.19814550119817714
-0.23765422749303758 -0.14573459 -0.3719915657876049 0 -0.9999999999999999 0
-0.0076858820176665815 -0.13855600371749574 0.3374860552621313 -0.024929496743466947 0 0.9996892118014065
0.037483765727271134 0.1234431735902298 0.4984371427551026 0.07472957937173948 0 0.99720383571611
0.02878614176376513 -0.13133805302443755 -0.2947895504064812 -0.07473106888431227 0 0.9972037240922279
-0.04452489747411091 0.14573459 -0.4768588399160515 0 1 0
-0.2013808159788363 -0.11596881508706028 0.3945716303806516 -0.45621154653793033 0 0.8898713529524758
0.2944501935241049 0.0052367163388142846 -0.031430460136226274 -0.9950309403700096 0 0.09956619760930104
0.17781282611502253 -0.12203792 -0.3058129173691195 0 -1 0
0.44299021 -0.07722422865452348 -0.003522456834319074 0.9999999999999999 0 0
-0.28486774376831336 0.008313307769252154 0.08109978936114326 0.9555729137377043 0 -0.29475482444030293
0.25782709174030094 0.04802971255903005 0.14571160916759965 -0.8782218666595633 0 -0.4782534400513938
0.0359869914104676 -0.13789250320226462 -0.2939227709829044 -0.12434314233642799 0 0.9922392770667279
0.1818810866992989 -0.11766052110449285 0.233701832678431 -0.6234896852645191 0 -0.7818315754487989
0.33639821547364246 -0.14245483307924808 0.28826666602283146 0.76604478653009 0 0.6427872004248909
-0.1822807952292359 -0.14573459 -0.25816163819369947 0 -1 0
0.2945566700055717 0.10674164244308108 0.03036637015363085 -0.9950309403700096 0 -0.09956619760930104
-0.29050426358488374 0.0956632148867176 0.4067607915490631 -0.5837442981882887 0 0.8119375556855727
-0.47676199741271025 0.0785892489787329 -0.15017140387207673 -0.9555728413831083 0 -0.29475505900834537
0.2915463596908446 -0.04723586733393079 0.05223798175595333 -0.9801724046788294 0 -0.19814655461582248
0.13423181471068926 -0.006610289140565634 0.26394642539887964 -0.45621114407982444 0 -0.8898715592811008
0.23827270200368922 -0.007001290960375883 -0.17585422160426006 -0.7971324095610868 0 0.603804539256982
0.20813201986843255 -0.12552600624186322 -0.39111048157835937 0.45621154653793033 0 -0.8898713529524758
-0.0676286959126565 0.12203791 0.33925627443343287 0 1 0
0.23474821636974103 -0.14573459 0.2257499169114037 0 -1 0
-0.002854985960473063 -0.08693735825475332 -0.4430567575825876 -0.024931920934885523 0 -0.9996891513458054
0.15758123874696064 0.12630023405791116 -0.2507319671044165 -0.5425457573096077 0 0.8400262503192054
0.2856338825131241 -0.08027862502993349 0.3387525789760021 0.6616854325537084 0 0.7497815604202412
0.23634606092355762 0.14573459 -0.2078517046803803 0 1 0
0.348868460555173 -0.021516033628352638 -0.2730947706427023 0.7971322102079184 0 -0.6038048024395295
-0.13487893512698743 0.140120472993632 -0.48130295410151025 -0.27083980396313645 0 -0.9626244338210046
0.08201757103819349 -0.14573459 0.4101457199179061 0 -1 0
-0.31075463906409334 0.0689170985266129 0.3915066464704795 -0.623489205276228 0 0.78183195822633
0.0749345464188414 -0.12203792 -0.35870778081867183 0 -1 0
-0.2730190145739673 -0.010939246321434198 -0.11465487898248075 0.9214758704533322 0 0.38843560621069956
-0.3307452125599017 -0.08314981581408921 0.2948322094973065 -0.7330519822137223 0 0.6801726188053536
-0.35361620049017656 0.14573459 -0.263391597496153 0 1 0
0.3960850067840135 -0.14573459 -0.17800569716122175 0 -1 0
-0.4090801805682842 -0.14573459 0.10668933927825926 0 -1 0
0.056787490470533886 0.14573459 0.30917648609791676 0 1 0
0.3997311575946503 0.14155730935583136 0.02237282174343145 -0.9987569753648121 0 -0.04984480073319532
-0.39493083102555576 -0.12203792 0.06205578207741706 0 -0.9999999999999999 0
0.43347497937664936 0.11487757950715541 -0.24915109597238858 0.8782211899026597 0 -0.4782546827851833
-0.419948182320337 -0.14573459 -0.07418782632704536 0 -1 0
-0.23105668320603007 -0.12203792 -0.2670659074613513 0 -1 0
0.047038347127527594 -0.05041670415324759 0.4405604078640817 0.12434327089262648 0 0.9922392609566117
-0.36550398829501457 0.11026830466221466 0.34095928096369627 -0.7330521899358996 0 0.6801723949339473
0.4056998999309908 -0.14573459 -0.16715970604134173 0 -1 0
-0.31025499571124976 -0.0754952096140716 -0.3162023319986151 -0.6982364666623224 0 -0.7158671920286022
0.052828163670387215 0.14573459 -0.31315734323399136 0 1 0
0.495083427002636 0.13561044585862653 0.06904633735245468 0.9888308103826617 0 0.14904237128403505
0.4840816596138263 0.11496029708141761 -0.12454363665280581 0.9690771021619217 0 -0.2467581205663811
0.3157712522777525 0.14573459 -0.3831049655193269 0 1 0
-0.3259568551965051 -0.14573459 -0.23878126029147506 0 -0.9999999999999999 0
0.3313538565525963 0.14573459 0.35907489699731265 0 1 0
-0.09113251680958873 -0.128448845526369 0.3898447894049127 0.22252145910596427 0 -0.9749277923196942
-0.19862506410860428 0.12203791 -0.31744249099955774 0 1 0
0.4405655422298228 -0.08664455011513277 0.04633983418812712 0.9950309057167106 0 0.09956654392205443
-0.36371844172517087 -0.12203792 -0.029500454664846687 0 -1 0
0.08472322901191033 0.03304249270997748 0.4348850886793717 0.17364810430485705 0 0.9848077659479182
-0.11909517214929678 -0.020295385664847176 -0.2711273509913992 0.41128751545847747 0 0.9115056662621427
0.08345974155917225 0.023548198596207742 -0.2841318282590048 -0.2708415942673559 0 0.9626239301070365
-0.4699559650830599 0.06279621 -0.08054369168836516 0 -1 0
0.09842985278657287 -0.041827036669305595 -0.27931239734395874 -0.31848702042029736 0 0.9479272217970116
-0.03867256194557572 0.006282845069698936 -0.4413342790305449 -0.07472873995289836 0 -0.9972038986210654
-0.3174919325994285 -0.13093632860084528 0.24389740664376275 0.7971331391865021 0 -0.6038035760167977
-0.4012502772439816 -0.04032224592349669 0.18778354479479611 -0.900968481278994 0 0.4338845419484578
0.3631169385066697 -0.12203792 -0.05036480024886695 0 -0.9999999999999999 0
0.246637336117212 -0.05074286104304401 0.16391238122216795 -0.8262392463838195 0 -0.5633193656666687
0.4131035084509395 -0.14573459 0.1596967199421346 0 -1 0
0.2351362631669135 0.130831910962109 0.3240273763579917 -0.5837430103992527 0 -0.8119384815427939
0.2931422154227617 -0.13733267377440997 -0.041923794461362504 -0.9888308174215351 0 0.1490423245841877
-0.4183861161638311 -0.055215020139956716 -0.145710378336816 -0.9396924513138931 0 -0.34202060894584535
0.008918624504591811 -0.12746434494696615 -0.33745531405831464 0.024929496743466947 0 -0.9996892118014065
0.11166044051623768 -0.14573459 0.28990214232081385 0 -1 0
0.07021902653004494 -0.018936749823617566 0.2877046243599687 -0.2225199012358578 0 -0.9749281478929531
0.3922724261729112 0.11580832180720883 -0.30995383481281386 0.7971331467995953 0 -0.603803565966097
-0.18537967118090887 0.12203791 -0.32039929074026596 0 0.9999999999999999 0
0.2809044258876026 0.14573459 -0.17432096503832806 0 1 0
-0.2892921401126251 -0.14573459 0.10850676415871474 0 -1 0
-0.4091938335855683 0.0683280344777574 0.2871418491748784 -0.8262384425397055 0 0.5633205446897545
0.3690113374637624 0.1014167657865454 -0.33717925400557464 0.7330521899358996 0 -0.6801723949339473
-0.2796418146378132 -0.07533804891430729 0.3435988421070834 -0.6234900258173732 0 0.7818313038669219
-0.08382134215498308 -0.13235104206919485 0.43504411559652045 -0.17364810430485705 0 0.9848077659479182
0.3483896183245623 0.13385776976581565 0.19735575049568943 -0.8782209005843524 0 -0.4782552140612888
0.3682016701919236 0.13961348068919777 -0.3380518686120503 0.7330521899358996 0 -0.6801723949339473
-0.3176770876897094 0.06279621 0.3206682762911532 0 -0.9999999999999999 0
-0.0632577864659305 -0.14573459 -0.40353231400813344 0 -1 0
-0.2724052546467793 0.14573459 0.3964438575355875 0 1 0
0.21869656984388308 0.14573459 -0.25033053923149307 0 1 0
-0.43519160152438746 -0.14573459 0.005114055295783437 0 -0.9999999999999999 0
0.0524214529087416 0.07316691869468951 0.29144121610421175 -0.1736480195518096 0 -0.984807780892157
0.40533279217875545 -0.14573459 -0.1385433373727978 0 -1 0
0.19588338570796537 0.05831438517672454 0.3973900053710783 0.45621154653793033 0 0.8898713529524758
-0.09269702682795512 0.10407028339611302 0.2812385269203275 0.31848702042029736 0 -0.9479272217970116
-0.2822141719666329 0.14573459 0.3119950325504878 0 1 0
-0.04345852377930694 0.09243282076645432 0.2929864708038224 0.12434314233642799 0 -0.9922392770667279
0.48452090296031586 0.12195936022449123 -0.12281862485427636 0.9690771021619217 0 -0.2467581205663811
-0.16796094427971786 -0.00836374833794093 0.4099666526453589 -0.3653396964607251 0 0.9308742698076821
0.43397242006817166 -0.14573459 -0.021512912887858244 0 -0.9999999999999999 0
-0.08220365555023734 -0.10153795288026833 0.2844852376503119 0.2708415942673559 0 -0.9626239301070365
-0.320142550229827 -0.14573459 -0.026201167942076213 0 -1 0
0.2578328122723593 0.06279621 -0.4161035347546299 0 -1 0
0.3807537560143289 -0.02405368135538767 -0.22648357724467377 0.8532908284013562 0 -0.5214352904878299
0.19833330793092488 -0.119882301797365 0.2199069692125404 -0.6616859714184135 0 -0.7497810848694907
-0.48157654673070927 0.06279621 -0.11007355253236092 0 -1 0
-0.4123797177526949 0.14573459 0.1485383143981872 0 1 0
0.1926163184833178 0.06110120677437468 -0.22495224415020723 -0.6616859714184135 0 0.7497810848694907
-0.39590505691797423 -0.14573459 0.15978692443873857 0 -1 0
0.19382233808871865 0.0034699939399763513 0.22388792515063122 -0.6616859714184135 0 -0.7497810848694907
-0.2501898019175757 0.0012454472560458896 0.36572192268247367 -0.5837446416291153 0 0.8119373087679219
-0.2319232377223599 -0.023185178624221647 -0.3775611402505437 -0.5425457850560903 0 -0.84002623239865
-0.40381803980466846 0.11992345003190524 -0.29471147480573207 -0.7971331467995953 0 -0.603803565966097
-0.4894922090511249 0.07394004857575504 0.10122731619457825 -0.9801728056153757 0 0.19814457129097235
-0.3335092502126258 -0.1237919964706469 0.05225722235214462 -0.9888307036555768 0 0.14904307936974734
0.292755431983862 0.09335493729606176 0.04448993387927152 -0.9888308174215351 0 -0.1490423245841877
0.15780798287672346 0.12436557790229223 0.2505855204123626 -0.5425457573096077 0 -0.8400262503192054
0.28563345291061965 0.0022281444826482144 -0.0782775404726861 -0.9690769794523143 0 0.24675860247533196
-0.26769322253867195 -0.1363347495150089 -0.12660812082002137 0.9009688214000017 0 0.4338838356808099
0.2771292874392897 0.06279621 0.4019802538780321 0 -1 0
0.23484032322539922 -0.006808702061699867 -0.18038558927074289 -0.7971324095610868 0 0.603804539256982
-0.22331859526661052 0.14573459 0.3674105364313293 0 1 0
0.3940254748546338 0.12966771771399907 -0.07134397947072113 -0.9801724656587567 0 0.19814625296591784
-0.06017276775835985 0.06279621 -0.49313929637340853 0 -1 0
-0.32125118030184774 -0.1380431640526154 0.1037942205026102 -0.955573102795168 0 0.29475421152956416
-0.3008173834688407 -0.13136341968108214 -0.15337215051077932 -0.9009696309102881 0 -0.43388215471182867
-0.1933968094218263 0.14573459 0.4371201928441816 0 1 0
0.0837791895907583 -0.04773891548578213 -0.4350515482276616 0.17364810430485705 0 -0.9848077659479182
-0.2829604463797916 -0.0848618945942831 -0.08728310366778722 0.9555729137377043 0 0.29475482444030293
-0.24415309106094918 -0.01763721273870597 0.36966227337616153 -0.5425457850560903 0 0.84002623239865
0.3795130605265223 0.12203791 0.10349053967067932 0 1 0
-0.3442685747315654 -0.13388035597404463 0.27888712692549816 -0.76604478653009 0 0.6427872004248909
-0.26919573080082165 -0.08007502958477704 0.12348813112054643 0.9009688214000017 0 -0.4338838356808099
-0.49966017449001043 0.14214972141651183 -0.016160842772259976 -0.99875690596999 0 -0.049846191201056544
-0.3226159147640648 0.14573459 -0.3270595378052177 0 1 0
-0.059283964581825735 -0.028975039091913013 0.2902004687049951 0.2225199012358578 0 -0.9749281478929531
0.2715007770552764 0.0859971131431726 0.1182565550819981 -0.9214758704533322 0 -0.38843560621069956
0.2554128920147313 0.14573459 0.31862780015676145 0 1 0
0.1512943907406618 0.14573459 0.3986274823712253 0 1 0
-0.0772726459151033 0.12203791 0.3499519514020768 0 1 0
0.2770733457465963 -0.12203792 -0.2791787635593309 0 -1 0
-0.059488583790893404 0.06279621 0.47968104112201504 0 -1 0
-0.2969057257156239 -0.14573459 0.09453810273151993 0 -1 0
-0.37867550477252565 0.14573459 0.2023993324471918 0 1 0
-0.30379813655191956 -0.14573459 -0.276070077275051 0 -1 0
0.13628550065878176 0.09410210408863096 0.2628935606273424 -0.45621114407982444 0 -0.8898715592811008
0.061875551056169945 0.14573459 0.45267522373751934 0 1 0
-0.2907402135346379 -0.10960218431389565 -0.05622574837639094 0.9801724046788294 0 0.19814655461582248
-0.18532781489294586 -0.12203792 -0.32606603512561755 0 -1 0
-0.1419374533309393 -0.11055025591302126 -0.41963661207981534 -0.3184876981121325 0 -0.9479269941041003
-0.2643726703034269 -0.08839571582474746 -0.35552510904456497 -0.5837446416291153 0 -0.8119373087679219
-0.14883472213267174 0.12203791 -0.335944280691929 0 1 0
-0.2198166612852145 0.14573459 0.39486564741296487 0 1 0
0.37374912506717944 0.14573459 0.251986870648363 0 1 0
-0.4624919114709039 0.14573459 -0.1733627038524762 0 1 0
-0.28772995387096917 0.047326514463891495 -0.3369027870415328 -0.6616854325537084 0 -0.7497815604202412
-0.38629486602982593 0.12396424611707518 -0.3172518492810503 -0.7660441102611233 0 -0.6427880063708749
-0.222288269656136 0.14573459 -0.20747226011304215 0 1 0
-0.3173994045567515 -0.12203792 0.19114876381517704 0 -1 0
-0.49984461 0.07812640812790164 0.00834326016700828 -1 0 0
0.3890368723457395 -0.03766380964600996 -0.21187412977139358 0.8782215293059348 0 -0.47825405953692157
0.4307842355280086 -0.07702637598966784 0.10344988605035359 0.9690773553968351 0 0.24675712605125788
-0.3343419702645294 -0.07450219274456062 0.2907172062968558 -0.76604478653009 0 0.6427872004248909
0.16951793777822283 -0.09824629601334287 -0.24282819877040485 -0.5837446961388253 0 0.8119372695780078
-0.2941981777650226 -0.1439697581843192 0.03394902048872364 0.9950309403700096 0 -0.09956619760930104
0.45731715277805435 0.06279621 -0.14522746823687915 0 -1 0
0.4678654443544049 0.14573459 -0.14259425373674947 0 1 0
0.041447760378949275 0.13655697508825884 0.4981400844784073 0.07472957937173948 0 0.99720383571611
-0.15669716753084387 0.06279621 0.4640976241977663 0 -0.9999999999999999 0
-0.06725835987579942 0.14573459 -0.47944635949523406 0 1 0
-0.2711955460309149 -0.14573459 -0.12719973872402357 0 -1 0
-0.2992965421468222 0.12203791 -0.2026002501023241 0 1 0
0.2564904182630396 -0.06751901041167012 -0.3611920766082657 0.5837446416291153 0 -0.8119373087679219
0.06539143135127018 -0.027945620902099913 -0.28880648607635195 -0.2225199012358578 0 0.9749281478929531
0.13126692667381137 0.09080270906016635 0.26546643685363985 -0.45621114407982444 0 -0.8898715592811008
-0.16728085016596494 -0.14573459 0.28850214418425024 0 -1 0
-0.05041565200360258 -0.05768419311062059 0.2917948925896646 0.1736480195518096 0 -0.984807780892157
-0.32285481917063313 0.12203791 0.12514561715904318 0 1 0
-0.4592935973469947 0.13496659098390554 -0.19724408136952148 -0.9214768240877195 0 -0.388433343920434
-0.16864556313330586 -0.040704591897809506 0.24345539509590539 0.5837446961388253 0 -0.8119372695780078
0.32195371224054264 -0.12203792 0.13778562734637084 0 -1 0
-0.32471583737259874 0.12203791 -0.19113363561577454 0 1 0
0.4192978961429745 0.010997759115475597 -0.1432052872947851 0.9396924513138931 0 -0.34202060894584535
-0.2609201044547721 -0.0378874393077198 0.14003187710040793 0.8782218666595633 0 -0.4782534400513938
-0.25618305928781904 0.03989894616347886 -0.1486623899604356 0.8532904027454864 0 0.5214359870419815
-0.2702232297411475 -0.10539466084258053 0.12128724795492106 0.9214758704533322 0 -0.38843560621069956
0.2334304776152143 0.06279621 -0.4270999954803996 0 -1 0
-0.3271350433159437 0.06279621 -0.33456304299510414 0 -1 0
0.062083879767574734 -0.12203792 0.37043358219068606 0 -1 0
0.4507783908665287 0.14573459 -0.14091534877981796 0 1 0
-0.09803531413919606 0.14573459 0.3919117992815472 0 1 0
-0.28368565674497165 0.14573459 0.11452179638278227 0 1 0
-0.15986175603032243 -0.05123032104951594 -0.24925905482805724 0.5425457573096077 0 0.8400262503192054
-0.19390489067141964 0.014536277115720503 0.22381507203792952 0.6616859714184135 0 -0.7497810848694907
0.13091418691312123 -0.14573459 -0.384234624913752 0 -0.9999999999999999 0
-0.4791027415331318 0.06279621 -0.10580287707065783 0 -1 0
-0.1712794600067983 0.12203791 0.32396483655310343 0 1 0
-0.2943145678487984 0.14573459 0.11544096850104515 0 1 0
0.02190042536542632 0.027251225069782135 0.44258177054409154 0.024931920934885523 0 0.9996891513458054
-0.406756175258033 0.059055486213074146 0.17550975137924052 -0.9214765309926038 0 0.38843403922652886
0.17304163210608675 -0.017614759577698508 0.4079188669593779 0.4112858540919366 0 0.9115064158983558
0.20469902464468812 -0.07972900369841882 0.2139895908656967 -0.6982373004789945 0 -0.715866378746625
-0.2293847878882489 -0.12203792 0.3245839508091618 0 -1 0
-0.24075211345496605 0.06312064076836979 -0.17254443300952368 0.8262392463838195 0 0.5633193656666687
-0.0030998232254826597 0.06279621 0.4780398422831032 0 -1 0
0.3679350722474439 0.13319957561605622 -0.1578284198713648 -0.9214760135856579 0 0.38843526666136347
0.1779791334549478 0.12203791 0.29738941100665733 0 1 0
-0.31023445773545505 -0.06376894939118588 0.3162223641551533 -0.6982364666623224 0 0.7158671920286022
0.47596755850620537 0.10704742346917825 0.15274691265468487 0.9555728413831083 0 0.29475505900834537
-0.3696889697910073 0.06279621 0.2734584183461506 0 -1 0
0.12108873287523385 -0.06351833861009848 -0.2702278210507367 -0.41128751545847747 0 0.9115056662621427
0.12518992136134569 0.14448044615339203 0.3802803628037757 -0.31848856464389386 0 -0.9479267029634053
0.2547390943364734 0.03532979233428732 -0.3624511959353985 0.5837446416291153 0 -0.8119373087679219
0.4222432589366191 0.05879696365854945 -0.13403008924935483 0.9555726269613188 0 -0.29475575414611355
0.20254363791982663 -0.11165180289906437 0.3939754848880617 0.45621154653793033 0 0.8898713529524758
-0.08766721266022348 0.0016944826434203974 -0.28292845679122186 0.31848702042029736 0 0.9479272217970116
-0.0909119065145074 -0.050827094735399536 -0.43363251331992336 -0.22252029022124076 0 -0.97492805910993
-0.44295096643493204 0.013521328732798377 0.011833811546604664 -0.9987569282896218 0 0.049845743985612256
0.3888577943447374 0.12715122282833655 0.0953009017969447 -0.969077151623683 0 -0.24675792631834406
-0.19251184162786358 0.12203791 -0.34600476544877246 0 0.9999999999999999 0
0.19866701664218742 -0.06377716879029548 -0.395962917546216 0.45621154653793033 0 -0.8898713529524758
0.445234916762717 0.14573459 0.146465517905934 0 1 0
0.35106658874424906 -0.12203792 0.16267239133212408 0 -1 0
0.06487962291371785 -0.14573459 0.3184759196608095 0 -1 0
-0.1560575670773266 0.0035272683136988447 0.2517160573034771 0.5425457573096077 0 -0.8400262503192054
-0.2754311660534198 0.09572208263597781 -0.10893259361869242 0.9214758704533322 0 0.38843560621069956
0.3955523348211215 0.12203791 -0.02403679404872394 0 1 0
-0.41831558186094614 0.14573459 0.020345090559463316 0 1 0
-0.23457108956744205 0.14573459 0.21149812734810985 0 1 0
-0.3331164087071456 0.1454333414815143 0.05486354090065879 -0.9888307036555769 0 0.14904307936974737
0.39123635444142163 -0.12744888135307353 -0.20783520424377488 0.8782215293059348 0 -0.47825405953692157
0.3504372857358976 0.06279621 0.347001696686237 0 -1 0
-0.09431478043121377 0.14573459 -0.40893364007102295 0 1 0
-0.2747358624013564 -0.010649468252695318 0.3475112107618538 -0.6234900258173732 0 0.7818313038669219
0.2465188813465193 -0.08602746460131737 -0.16408612277346693 -0.8262392463838195 0 0.5633193656666687
-0.05284741205172913 -0.14573459 0.4040214740911309 0 -1 0
0.285072785782846 -0.11200200909703092 -0.08043505861199385 -0.9555729137377043 0 0.29475482444030293
-0.21007656448236212 0.06279621 -0.41467500236884874 0 -1 0
-0.48726991533176844 0.06279621 0.0838452297387677 0 -1 0
-0.4398312308081747 -0.09533161458759472 0.05367826866801239 -0.9950309057167106 0 0.09956654392205443
0.13348320853538628 0.06279621 0.461334191991653 0 -1 0
0.27242350928822856 -0.14573459 0.17722522792394413 0 -1 0
0.01736861257926376 -0.12203792 -0.38362487472774126 0 -0.9999999999999999 0
-0.4987385895089152 0.12151300365270803 0.03462643346492627 -0.99875690596999 0 0.049846191201056544
-0.4409693658834495 -0.04400340774390314 0.042304171203454546 -0.9950309057167106 0 0.09956654392205443
-0.017595263576983166 0.006888627254615615 0.4426891398730243 -0.024931920934885523 0 0.9996891513458054
-0.23353371781052742 0.14573459 -0.36378789307097986 0 1 0
-0.02600353755212817 -0.12203792 0.3693186354803553 0 -1 0
-0.3739004201306795 -0.017426734532579702 -0.2376985616543422 -0.8532908284013562 0 -0.5214352904878299
0.3360592914853463 -0.14290501452459767 0.031972375970248726 0.9950309020027568 0 0.09956658103791756
-0.11289379943831415 0.12203791 -0.34056298688189024 0 1 0
0.09790793011416263 -0.02328659592645374 0.2794877542627216 -0.31848702042029736 0 -0.9479272217970116
0.29983068329338236 0.14573459 0.2841324279127584 0 1 0
0.49459594932606205 0.09066060635976965 -0.07228053808220201 0.9888308103826617 0 -0.14904237128403505
0.18415026834278053 -0.05123540466115216 -0.40290647772907023 0.4112858540919366 0 -0.9115064158983558
-0.3153508538506032 -0.06198484689058764 -0.31123197713188105 -0.6982364666623224 0 -0.7158671920286022
-0.16876303021637226 0.12203791 0.31504252231636726 0 1 0
0.28509486542487256 -0.08854117121112251 0.08036347807754238 -0.9555729137377043 0 -0.29475482444030293
0.06731235114879279 -0.12203792 -0.3553506904723656 0 -1 0
-0.44299021 -0.13885774497424702 0.010475659367413194 -0.9999999999999999 0 0
0.15328021969975786 0.12311417572810118 -0.4758032129587537 0.3184860114997309 0 -0.947927560776135
-0.2606585432795326 -0.13331322102148754 -0.14051218466189627 0.8782218666595633 0 0.4782534400513938
-0.013645586906903807 -0.021548690535086526 0.4427876435192069 -0.024931920934885523 0 0.9996891513458054
-0.2120418207789097 0.10515750726172628 0.45269540257824903 -0.41128720875948716 0 0.9115058046501021
0.2818000509166069 0.14573459 0.3635164278122608 0 1 0
0.2948168767988137 -0.04243552588815391 0.027765951373089744 -0.9950309403700096 0 -0.09956619760930104
-0.14730158467285592 0.041818544400835836 0.2568812294160147 0.5000000280763222 0 -0.8660253875745659
0.28731651346062026 -0.0611562666892312 -0.07166778009283069 -0.9690769794523143 0 0.24675860247533196
0.07615939140501751 -0.03189349888389589 -0.4363951236500852 0.17364810430485705 0 -0.9848077659479182
0.04252746326929872 -0.12203792 0.39735361507820904 0 -1 0
0.24617001330823673 0.12203791 0.3126377807273147 0 0.9999999999999999 0
-0.2887820049521273 0.03652084946247351 0.06591242710216318 0.9801724046788294 0 -0.19814655461582248
0.026880672683185756 -0.14573459 0.42215704541931226 0 -1 0
0.20178299434636168 -0.12793670252297218 0.27068965319806376 0.5837441416330659 0 0.8119376682412728
-0.4415331403803401 0.05367854818358347 -0.03667001914631184 -0.9950309057167106 0 -0.09956654392205443
0.29096426924391 0.14132619123235945 -0.05511741104615041 -0.9801724046788294 0 0.19814655461582248
-0.21490347928899178 -0.08393766221283303 -0.20374390457857558 0.7330511566663588 0 0.6801735085330164
0.43816132465546 -0.03067465413396986 -0.06523525511017775 0.9888307247425194 0 -0.14904293946773803
-0.3000143017291898 -0.12203792 0.15654939503275964 0 -1 0
-0.31047797956296597 -0.12203792 -0.2120580449180147 0 -1 0
-0.09240469618787299 0.14573459 -0.4626631537161548 0 1 0
0.206644278887429 -0.002552295722749509 -0.2120922408692144 -0.6982373004789945 0 0.715866378746625
-0.40884662222907653 0.06279621 -0.25948627608325897 0 -1 0
-0.24722869279999338 0.14573459 0.421438001870043 0 1 0
0.3188057289095472 0.13885602558192772 0.242162950905946 -0.7971331391865021 0 -0.6038035760167976
-0.4174129138995176 0.06279621 0.26020045311517254 0 -0.9999999999999999 0
-0.0755835344725965 0.028450120887845765 0.4364966627200675 -0.17364810430485705 0 0.9848077659479182
-0.07881182428682225 0.10192609117389481 -0.28543955527959325 0.2708415942673559 0 0.9626239301070365
-0.23771979150873335 0.12203791 0.3096937436991402 0 0.9999999999999999 0
0.29791089897247924 -0.14573459 0.314244045226802 0 -1 0
0.052042349001941685 0.13542248589181172 -0.29150806228871334 -0.1736480195518096 0 0.984807780892157
-0.404154806270963 0.14573459 0.04788458885676592 0 1 0
0.45579540612964814 0.06279621 -0.07762354278262737 0 -1 0
-0.11331718244438704 -0.12203792 0.35441458166152245 0 -1 0
0.21617332239508666 -0.14573459 -0.23298256055693084 0 -0.9999999999999999 0
0.3971118589710543 0.14573459 0.09209122791169408 0 1 0
0.2527121616137759 -0.025821856529369525 -0.36390846499181473 0.5837446416291153 0 -0.8119373087679219
-0.20209519667731987 0.12203791 0.32473497253408146 0 1 0
0.3183135148251882 0.14573459 -0.02443735643422777 0 1 0
0.036560242341934494 0.14573459 0.3022202622451304 0 1 0
0.13164228926853502 -0.0362588218019648 0.42309561591061223 0.3184876981121325 0 0.9479269941041003
0.19131566027744945 0.12203791 0.3429755945671001 0 0.9999999999999999 0
0.05891961457924019 -0.0005744685530142957 -0.2902836288094252 -0.2225199012358578 0 0.9749281478929531
0.34511963153879666 -0.12203792 0.052478641621356556 0 -1 0
-0.3197521947837165 0.0541436793196322 -0.30667986882457693 -0.7330519822137223 0 -0.6801726188053536
0.06111408235640451 0.09750379185561803 0.49609552397332574 0.12434391803999156 0 0.9922391798585984
0.33797875162403523 -0.12292339306283692 0.28638305434367795 0.76604478653009 0 0.6427872004248909
0.04033277196942571 -0.13670625000337785 0.4412098657552749 0.07472873995289836 0 0.9972038986210654
0.028325683460900343 -0.05141616709448105 0.44210965625547827 0.07472873995289836 0 0.9972038986210654
-0.4168237743008935 -0.07670496434301698 0.15000287070883736 -0.9396924513138931 0 0.34202060894584535
0.22063645000932275 0.06279621 -0.3875717704145131 0 -1 0
-0.341981117668681 0.12203791 0.03594250514068435 0 1 0
0.18855075406518151 -0.011443650230495789 0.22838295206864484 -0.6234896852645191 0 -0.7818315754487989
-0.14892920172780652 0.009012694192074483 0.2559415242008454 0.5000000280763222 0 -0.8660253875745659
-0.3285460690431507 0.11650650016544212 0.376710296189615 -0.6616858437432154 0 0.749781197543543
0.0989894589039424 -0.043483031049511886 -0.43178887030936597 0.22252029022124076 0 -0.97492805910993
-0.3300914983413439 -0.14573459 0.23175935179200952 0 -0.9999999999999999 0
0.4672422462274347 0.14573459 -0.01864081540279077 0 0.9999999999999999 0
-0.4887237642242868 0.06279621 -0.0648219929201297 0 -1 0
0.10694346608517945 0.14573459 -0.28859583590083393 0 1 0
0.442459943328509 -0.11994546294693093 0.02167241942517966 0.9987569282896218 0 0.049845743985612256
-0.13219244625573004 0.14573459 -0.4533042228945958 0 1 0
-0.33150378755450816 0.11739292102761933 -0.3741000940731118 -0.6616858437432154 0 -0.749781197543543
-0.27655034302035064 -0.03975521117200648 -0.10597082898700375 0.9396931163054816 0 0.34201878189376184
-0.2849771038852687 0.07275336968154218 -0.08074525210868569 0.9555729137377043 0 0.29475482444030293
0.2934902766256651 -0.06469870707946224 -0.03961456019022564 -0.9888308174215351 0 0.1490423245841877
-0.2583246842960298 0.14401141605154977 0.3059821487641546 0.6616859334704024 0 -0.7497811183588196
-0.23827121738749035 -0.14573459 -0.3292574234190164 0 -1 0
0.2783742699624595 0.14573459 -0.1654437943638102 0 1 0
-0.49984461 0.13146215011079568 0.01086003974401902 -1 0 0
-0.441896749089637 0.04634872913883422 0.03295711703564291 -0.9987569282896218 0 0.049845743985612256
-0.2638113743824626 -0.06520549223131988 -0.13466885936462714 0.9009688214000017 0 0.4338838356808099
0.24871009138935216 0.14573459 -0.35916282538211863 0 1 0
0.2928663902796945 0.06279621 -0.38823800607632547 0 -1 0
0.40554127796601314 -0.06849835889535254 -0.17839183489692587 0.9214765309926038 0 -0.38843403922652886
0.48789386081167524 0.14573459 -0.035844882616993125 0 0.9999999999999999 0
-0.3981351708597468 0.14133005232970922 0.042109046619718704 0.9950307223791732 0 -0.09956837611199922
0.3409911577413235 0.04584799129657913 0.28279300463588253 0.76604478653009 0 0.6427872004248909
0.13662478202298034 0.14573459 -0.42501929279331263 0 0.9999999999999999 0
-0.0645875134930552 -0.007441095765954919 0.28898997418549965 0.2225199012358578 0 -0.9749281478929531
-0.09126524447361062 0.01839596880613653 0.2817195808297839 0.31848702042029736 0 -0.9479272217970116
0.3985013337234391 -0.010987298211146607 0.19349177182151306 0.900968481278994 0 0.4338845419484578
0.17767428012769626 -0.13989736148039042 0.23696417236738954 -0.5837446961388253 0 -0.8119372695780078
-0.051590748711680366 0.07486490022157474 0.49728895459189476 -0.12434391803999156 0 0.9922391798585984
0.4958844831757695 0.09004729163789375 -0.06373168073489432 0.9888308103826617 0 -0.14904237128403505
0.33497566265780776 -0.13194691249582066 -0.21937717553776284 -0.8262391667920224 0 0.5633194824065866
-0.42070873112539253 -0.10988633657902679 0.1390048955121431 -0.9555726269613188 0 0.29475575414611355
0.08410288457544468 -0.08022383078669129 0.2839508750597115 -0.2708415942673559 0 -0.9626239301070365
0.4702453622012417 0.06279621 -0.14830290716960556 0 -1 0
0.2901947957109897 0.1372526464984885 0.058923769044963624 -0.9801724046788294 0 -0.19814655461582248
-0.12067352704825818 -0.13396695736205216 0.31527990276355483 -0.36534185873790687 0 0.9308734211770854
-0.053751233119228664 -0.0940544778387321 0.43971917709023317 -0.12434327089262648 0 0.9922392609566117
0.12037951036053016 -0.11444009388262266 -0.2705478348222099 -0.41128751545847747 0 0.9115056662621427
-0.16532090930286053 -0.12203792 -0.3515275327371874 0 -1 0
0.42713829131420333 0.14573459 -0.03007468235446594 0 0.9999999999999999 0
-0.024208492367684416 0.11526065310644147 -0.499396257804414 -0.0249315207240534 0 -0.9996891613268527
0.41514846846157155 0.14573459 -0.20766537002275387 0 1 0
-0.26726063948105055 -0.09944865981441256 0.3534487953754887 -0.5837446416291153 0 0.8119373087679219
-0.2924586671681551 0.024345422377070186 -0.046458838994755315 0.9888308174215351 0 0.1490423245841877
0.22744037280497062 -0.13762867781706636 -0.24951106167221104 0.6616848867766237 0 -0.7497820420704983
0.4996175026136135 0.09018147786531265 -0.017015849548409276 0.99875690596999 0 -0.049846191201056544
-0.01391572782065172 -0.13612832428871008 0.2958614940034703 0.024930649430133865 0 -0.9996891830559096
-0.3463241188202564 0.14573459 0.23014219712438 0 1 0
-0.3059565100925079 -0.13867890551426473 0.32039495242297616 -0.6982364666623224 0 0.7158671920286022
0.015672928951863285 0.00817752520250433 -0.44273708227073794 0.024931920934885523 0 -0.9996891513458054
0.33297716958413043 -0.0932509256806331 0.29234371417563937 0.76604478653009 0 0.6427872004248909
0.25355695452090504 0.06279621 -0.4256250788744369 0 -0.9999999999999999 0
-0.34639893640904584 -0.11758054120448412 -0.27634825798819096 -0.76604478653009 0 -0.6427872004248909
0.2178422012531011 -0.05230218557864996 -0.20057672222306547 -0.7330511566663588 0 0.6801735085330164
0.3311054857204303 0.12203791 0.19833600826620681 0 1 0
0.41143015640645175 0.04592095531365988 -0.16442173256619821 0.9214765309926038 0 -0.38843403922652886
0.17241431229506654 0.08972534581724867 -0.24074584176378794 -0.5837446961388253 0 0.8119372695780078
0.29299708355453435 -0.016422337162273454 -0.04288668110643843 -0.9888308174215351 0 0.1490423245841877
-0.0029337818566169925 0.14573459 0.47866180455855406 0 1 0
-0.3503845797043586 -0.14573459 0.20476797800438112 0 -1 0
-0.29575820113597784 -0.06139635455092313 -0.014563104085355907 0.9987568615655256 0 0.049847080915352275
-0.03907817601573265 -0.07594358132213354 0.44130388301182505 -0.07472873995289836 0 0.9972038986210654
-0.3232205322563334 0.12203791 0.23079279555482765 0 1 0
0.06559969831163874 0.0826904667612278 -0.2887589507338223 -0.2225199012358578 0 0.9749281478929531
-0.2971355486412869 0.1305472758745656 0.1602117918614 -0.8782212427658401 0 0.47825458571227886
-0.15345491250637047 0.14573459 -0.39663051149977946 0 1 0
0.04592425480699112 -0.07690911647480467 0.44070002125035135 0.12434327089262648 0 0.9922392609566117
0.446656769156963 0.06279621 -0.20098779509627593 0 -1 0
0.12475199319027672 0.13999614755107276 0.3136792185381523 0.36534185873790687 0 0.9308734211770853
-0.050848544262408375 0.12203791 -0.3496448980221525 0 1 0
0.3073984923861839 0.06279621 0.3440447830443605 0 -0.9999999999999999 0
0.3890042305497024 0.14573459 -0.2981949910703444 0 1 0
0.002456553451881137 0.12203791 -0.33850775168062597 0 1 0
-0.24419019758614274 0.12203791 -0.2600776072013742 0 1 0
-0.037443194420785544 -0.14573459 -0.3330921095572631 0 -1 0
-0.13089722964656328 -0.12203792 0.33044167420537485 0 -1 0
-0.3609536557304398 0.05254788885973698 0.2569699376520708 -0.8262390340605357 0 0.5633196770881638
0.3930023716794791 -0.08050298989861003 0.20459225349686594 0.8782215293059348 0 0.47825405953692157
0.18590152589025197 -0.14573459 0.28091822922395127 0 -1 0
-0.28448478514559267 -0.014463881715995663 0.0823413123375664 0.9555729137377043 0 -0.29475482444030293
0.32155772802674687 0.04491472505971566 0.3047339661431652 0.7330519822137223 0 0.6801726188053536
0.24927498183356686 0.12203791 0.28587836572506964 0 1 0
-0.3060821859473863 -0.12203792 -0.21622515483279126 0 -1 0
-0.05121365180014491 0.07144710229644516 -0.4973362110482139 -0.12434391803999156 0 -0.9922391798585984
0.1876078751740833 0.10245988526400852 -0.2291348726631999 -0.6234896852645191 0 0.7818315754487989
-0.3648145096560048 -0.14573459 0.21816636537272827 0 -1 0
0.002697052433949904 -0.12203792 0.3423353054177442 0 -1 0
-0.1257471510698934 -0.016814361978632203 0.4248104182492244 -0.2708421065794762 0 0.9626237859639619
-0.3233346303504979 -0.036976559575365844 0.3028189202642034 -0.7330519822137223 0 0.6801726188053536
0.43382623455844066 0.06805147046454085 0.24850608452803477 0.8782211899026597 0 0.4782546827851833
0.3196918630821196 -0.14573459 -0.29499723335097555 0 -0.9999999999999999 0
0.30992384198309664 0.06279621 -0.3405071407922641 0 -1 0
-0.39341716366371404 0.12534195222851677 0.07435311979493506 0.9801724656587567 0 -0.19814625296591784
-0.30462942211690597 -0.14573459 -0.006147176657795942 0 -1 0
0.4904547018481118 0.14208349890706545 -0.09646609937667285 0.9801728056153757 0 -0.19814457129097235
-0.2944669253020864 -0.007840010720956747 -0.03126324839992643 0.9950309403700096 0 0.09956619760930104
-0.10525722040632156 0.12107659598123639 0.27679551538871794 0.36533942680696757 0 -0.9308743756384943
0.26837785042290013 -0.14573459 -0.3384151570417023 0 -1 0
-0.20371927636806247 -0.047144253649091986 -0.3933727687394189 -0.45621154653793033 0 -0.8898713529524758
-0.1463038736943174 0.016757012392707805 0.4181695674875927 -0.3184876981121325 0 0.9479269941041003
0.16900353791222394 -0.11934052370391489 0.24319802807215304 -0.5837446961388253 0 -0.8119372695780078
0.354366804214 0.12617582473630928 0.18637983341115685 -0.8782209005843524 0 -0.4782552140612888
0.006756824902560547 0.06417274899318465 -0.29604002559306863 -0.024930649430133865 0 0.9996891830559096
-0.23202609568087448 0.14573459 0.3310282062074079 0 1 0
0.4861609548894847 0.06279621 -0.11186674656812798 0 -1 0
0.08545988639722514 0.0430560379633016 -0.283569072233769 -0.2708415942673559 0 0.9626239301070365
0.17427458451717293 -0.14573459 0.24975506601449138 0 -1 0
-0.23088424631556537 0.14573459 0.4086781716880952 0 1 0
-0.25161881743402104 0.13828161292350016 -0.15613142521392595 0.8532904027454864 0 0.5214359870419815
